-5.080596123551537779e+00 4.799608910821148555e+01 1.118585095520220918e+01
-5.072588708482963504e+00 4.811147249760304589e+01 1.184249889083598184e+01
-5.164725430325550093e+00 4.818575940167870897e+01 1.182600087413233148e+01
-5.133392603027151502e+00 4.823220054928660971e+01 1.114035033460842605e+01
-5.023830180529810008e+00 4.798292795663518007e+01 1.156912006453917918e+01
-5.006855740740676630e+00 4.800090904208807530e+01 1.152606732885548091e+01
-5.107532846383853631e+00 4.797368283985276349e+01 1.123123286701612145e+01
-5.100295165333090353e+00 4.809919077973331270e+01 1.119811958340403457e+01
-5.100330392626046816e+00 4.815467237298179271e+01 1.139449544443859708e+01
-5.130899803630295075e+00 4.802904021150094849e+01 1.126172931362144780e+01
-5.169308414966812926e+00 4.820585587134572592e+01 1.190796737255538318e+01
-5.105477418048688598e+00 4.809001093841200714e+01 1.186920216619989432e+01
-5.083783892300306917e+00 4.798847501669644799e+01 1.193327292075298729e+01
-5.084791344804118651e+00 4.815019705530927752e+01 1.105923387503404953e+01
-5.196666913612828509e+00 4.814677462489316895e+01 1.202646917526035963e+01
-5.099478026022329580e+00 4.809955328746767123e+01 1.117412216347115361e+01
-4.990934049700470609e+00 4.807543288380734481e+01 1.188808647991702472e+01
-5.120754654072340095e+00 4.810196575116597728e+01 1.153986444292191038e+01
-5.209298578838704508e+00 4.809862166820848017e+01 1.172173995306360261e+01
-4.998896990860413503e+00 4.802604911467399518e+01 1.179299900177649185e+01
-5.025500265495265850e+00 4.818726111777264975e+01 1.176439120601607335e+01
-5.140944004697021619e+00 4.807044278396068648e+01 1.134801356240538261e+01
-5.163155655671262778e+00 4.811268426649725427e+01 1.149296213185460580e+01
-5.108608939824563322e+00 4.810166751714987043e+01 1.181898379030918100e+01
-4.987815952520668006e+00 4.819740444064717622e+01 1.192286196917596541e+01
-5.156245537973724424e+00 4.806661779572996096e+01 1.119221077127588693e+01
-5.215037763555097072e+00 4.816652188634790122e+01 1.149653359977677169e+01
-5.056026939587686009e+00 4.810174660571806982e+01 1.108331776606226882e+01
-4.997883558636987189e+00 4.808054694196065526e+01 1.174378097840098256e+01
-5.101244170862964999e+00 4.822696250700672493e+01 1.151617752856798660e+01
-5.167505606849803534e+00 4.822410460737533811e+01 1.168249515159387819e+01
-5.067684149500809809e+00 4.809320037653077407e+01 1.147130827342669868e+01
-5.223251313710275845e+00 4.802580604525908825e+01 1.199262466538597494e+01
-5.131491865978013323e+00 4.815595363366048787e+01 1.147502922587469598e+01
-5.118913459712476133e+00 4.809254266107946307e+01 1.160179876031316581e+01
-5.113608457610999913e+00 4.817501227165368505e+01 1.143080885654479850e+01
-5.127879892881831658e+00 4.808475089501472155e+01 1.153761869039365173e+01
-4.982908355918129750e+00 4.803448668781156528e+01 1.195798255079843564e+01
-5.111240716075386104e+00 4.807332065292644785e+01 1.164296888026440868e+01
-5.187223079325863573e+00 4.800343932832264926e+01 1.145182166479805907e+01
-5.198222529605791564e+00 4.799357468450152453e+01 1.143953887014340154e+01
-5.204688259168271713e+00 4.802522362109694143e+01 1.111584559371035397e+01
-5.080190214782160041e+00 4.824206959863548860e+01 1.197936157449386840e+01
-5.141368835126582937e+00 4.798831650506755864e+01 1.121442871317841217e+01
-5.077768305816373839e+00 4.799089756396276840e+01 1.118739372047878256e+01
-5.074771788713230869e+00 4.800064831137155608e+01 1.134659952698542007e+01
-5.113016918045663495e+00 4.816996289385470220e+01 1.120638345106163136e+01
-5.019878058722404113e+00 4.800447460854336867e+01 1.144281761826856858e+01
-5.147960294762261135e+00 4.811709896047969437e+01 1.189981179447847026e+01
-5.099314814368183235e+00 4.809925681454438262e+01 1.145537932852018059e+01
-5.104700814395942032e+00 4.811581240015960503e+01 1.129549141350888419e+01
-5.057194693942616226e+00 4.816632185210465167e+01 1.152131214367321910e+01
-5.086645966506033290e+00 4.808383863437460093e+01 1.122777709636020482e+01
-4.994105741860185077e+00 4.812367155508581362e+01 1.186081172626869140e+01
-5.106567368691857567e+00 4.812453313075602068e+01 1.152990275038734858e+01
-5.100803934962258701e+00 4.810150416047877542e+01 1.169788443269880851e+01
-5.024585958820127374e+00 4.812089889365358175e+01 1.190309520510357899e+01
-5.204467796709198346e+00 4.807541741021559289e+01 1.158354586745374881e+01
-5.078723767378840570e+00 4.807213500165234876e+01 1.158586135571642828e+01
-5.066126349163829978e+00 4.808158215460745311e+01 1.123880823367355042e+01
-5.153326594772792646e+00 4.808896323436925258e+01 1.125245876073050511e+01
-5.021923755494626107e+00 4.818816127244593872e+01 1.176303779323272103e+01
-5.160242607809731652e+00 4.819132833845427655e+01 1.110873202782260449e+01
-5.094288195036694056e+00 4.809307098260140378e+01 1.191827411739269849e+01
-5.095042956683639268e+00 4.818860508531310671e+01 1.196369144621901093e+01
-5.084437747085459591e+00 4.808152401837570267e+01 1.186245668304043832e+01
-5.026621994087210332e+00 4.802387813230410529e+01 1.195397210440269298e+01
-5.139833590804505192e+00 4.802303050367090975e+01 1.142235277371757540e+01
-5.186619618999419146e+00 4.812215135743128513e+01 1.185513547485682473e+01
-5.078157670114769928e+00 4.816804476451310535e+01 1.126662762886211766e+01
-5.172160444925031797e+00 4.818322871459380963e+01 1.181563193217623109e+01
-5.045501125665066589e+00 4.810982202933865892e+01 1.192373162184461144e+01
-5.080510317972472656e+00 4.809947728647252774e+01 1.170903514607213403e+01
-5.104543578292545902e+00 4.810976538494935539e+01 1.136957790040887595e+01
-5.238310930775802454e+00 4.805027573913869077e+01 1.183484351358906927e+01
-5.079940949933550165e+00 4.807222389421553999e+01 1.157859856065605797e+01
-5.094360258794171870e+00 4.810998200794701063e+01 1.174313030718210094e+01
-5.024484373647917224e+00 4.807527897344901646e+01 1.190955031784206497e+01
-5.069894019000728669e+00 4.812633880457957503e+01 1.202108624486370481e+01
-5.074071224365503952e+00 4.804001593281407168e+01 1.156131732926077404e+01
-5.153521486618240388e+00 4.820194263513734967e+01 1.112117131478765941e+01
-5.069375935340959316e+00 4.809747544235420236e+01 1.167135019095196569e+01
-5.194903259158452080e+00 4.801623444331524837e+01 1.115080937693715235e+01
-5.001290581699745275e+00 4.819363444081428582e+01 1.181438443654297110e+01
-5.101014684580953862e+00 4.806968889952391066e+01 1.127424383003756425e+01
-5.052663690394832763e+00 4.813783216913031282e+01 1.117841791130333107e+01
-5.179925930875226570e+00 4.819641380813746423e+01 1.135715990948495957e+01
-5.160724703041087658e+00 4.815731225399412807e+01 1.199841489525634586e+01
-5.114220432000807115e+00 4.810810575318222959e+01 1.177632035129375865e+01
-5.012353462446886176e+00 4.820940079389364286e+01 1.152212621651405655e+01
-5.242394132621400082e+00 4.813161708501024094e+01 1.132566871996924540e+01
-5.164300521639263231e+00 4.805781076592215584e+01 1.177047409838038305e+01
-5.106066591624962570e+00 4.806611037818094445e+01 1.199788587274432317e+01
-5.121294822967702665e+00 4.807555623273700718e+01 1.200464293196126953e+01
-5.113098220621436596e+00 4.805920122423342633e+01 1.110098412948716629e+01
-5.225967529070822515e+00 4.816631727198854662e+01 1.119419916600214115e+01
-4.992081196731668946e+00 4.801944774476864097e+01 1.127058448770010912e+01
-5.034192234066728666e+00 4.801992984705530176e+01 1.114171371309851821e+01
-5.136360255179203804e+00 4.803445022244937235e+01 1.194893233339324823e+01
-5.155490142127465703e+00 4.817986023802512108e+01 1.116005585485956431e+01
-5.100400125435801790e+00 4.811045201451420184e+01 1.151746818989956900e+01
-5.069680280706958087e+00 4.803438869330489069e+01 1.158385427031687165e+01
-5.105620756641607194e+00 4.810395175846434057e+01 1.141053419999969165e+01
-5.124575010081303006e+00 4.805510358353982525e+01 1.190366039540257503e+01
-5.135105481371822655e+00 4.820004602769508750e+01 1.197813332152737686e+01
-4.971451533057003047e+00 4.810443345915533087e+01 1.168422373338050768e+01
-5.168907333767814194e+00 4.807739441853878759e+01 1.177105321317643849e+01
-5.088679387157124978e+00 4.799043573432161480e+01 1.196283626812247469e+01
-5.021767683398644877e+00 4.807002216105586712e+01 1.127953896659194832e+01
-5.154584025077521225e+00 4.820058782827450727e+01 1.198648566572074081e+01
-5.107846564893197439e+00 4.809370660629369354e+01 1.121326029206822206e+01
-4.973697189514334482e+00 4.806359532079886066e+01 1.180889060973220595e+01
-5.119730982666246710e+00 4.816451918208982619e+01 1.143993180498326190e+01
-5.031023324178363509e+00 4.797443588372091483e+01 1.183943844653678212e+01
-5.139141088488494269e+00 4.797577455037931315e+01 1.147969633636790299e+01
-5.038022569655955074e+00 4.813964276990755309e+01 1.143684506866052253e+01
-5.123470011779617472e+00 4.824004203715004735e+01 1.163117376622597021e+01
-5.160649520818248348e+00 4.816781766895466887e+01 1.177581358517456778e+01
-5.128904381234827170e+00 4.811942634813964759e+01 1.175708774176002791e+01
-5.160914835630312503e+00 4.812533336916003890e+01 1.132927785454083036e+01
-5.095975381352661593e+00 4.810060583614725971e+01 1.185848858553822716e+01
-5.129442194599523219e+00 4.806108951264006635e+01 1.115631422936292516e+01
-5.093935767443407592e+00 4.807408518400364272e+01 1.112880115396056446e+01
-4.971200645851312494e+00 4.815442889127791659e+01 1.166699782200584146e+01
-5.094511235704282548e+00 4.800249130412886700e+01 1.122502730863639897e+01
-5.065700112051248816e+00 4.815190879961694037e+01 1.143112027051651047e+01
-5.065414538440369263e+00 4.824552073158154997e+01 1.130604785601496509e+01
-5.140890917906466129e+00 4.809311998311593328e+01 1.186623509317015035e+01
-5.047351156006849138e+00 4.805573763101961049e+01 1.135140473058432775e+01
-5.089763006231484255e+00 4.815539802604157416e+01 1.122275722078575022e+01
-5.054339488706540706e+00 4.812881807105344478e+01 1.145395361857154093e+01
-5.093280449269243171e+00 4.815050832992106677e+01 1.113603885499482793e+01
-5.066643498466771867e+00 4.809511432310658563e+01 1.176451926101709944e+01
-5.066947469453260133e+00 4.814225277308059958e+01 1.146208312978647115e+01
-5.154519259895876004e+00 4.810744295669402248e+01 1.112895315267981644e+01
-5.176896601205102755e+00 4.802979504640173047e+01 1.123457673927468292e+01
-5.110270086824121094e+00 4.808793551171156366e+01 1.200963097904431010e+01
-5.064817500943011197e+00 4.805558608594523662e+01 1.121218488366449328e+01
-4.995737172843067952e+00 4.813367095944685303e+01 1.190536434084027739e+01
-5.115012167082730876e+00 4.809630084289580054e+01 1.196635589770025021e+01
-4.996765805410398720e+00 4.803199062994125512e+01 1.189888455990682026e+01
-5.081524016395597698e+00 4.805945736420034109e+01 1.196121301713712803e+01
-5.042932768847810721e+00 4.810374164544786879e+01 1.189833613329831152e+01
-5.032028082706997196e+00 4.818260662227823588e+01 1.159854844251662875e+01
-5.061787603747186282e+00 4.813129058251775660e+01 1.185867283542027906e+01
-5.079132377454100400e+00 4.812011223224335765e+01 1.160746281814346048e+01
-5.067284985656429264e+00 4.809813070918831812e+01 1.172795609397143757e+01
-5.061690683555825743e+00 4.812271025079154185e+01 1.187353216922300270e+01
-5.078202177887484403e+00 4.809677721254022487e+01 1.169734252844654243e+01
-5.002589629699486728e+00 4.807900333994522413e+01 1.178456160481134418e+01
-5.098105922688361602e+00 4.809971006657456627e+01 1.124713892871692877e+01
-5.137996453673227215e+00 4.811475557147624471e+01 1.120323313618734673e+01
-5.145458454739617160e+00 4.810413762661065107e+01 1.190397652231469827e+01
-5.099986433569037025e+00 4.814092961816072602e+01 1.123354738334236380e+01
-4.950467158761381548e+00 4.809141910922753027e+01 1.161928196729591889e+01
-5.211471818617399165e+00 4.805738739699268791e+01 1.146821837918370690e+01
-5.157786056847497136e+00 4.809969169501222552e+01 1.161132724730983234e+01
-5.209185146386611009e+00 4.799728635566570745e+01 1.182038770483502255e+01
-5.027778815801239531e+00 4.821815878200532524e+01 1.195202261583865777e+01
-5.190067097063565171e+00 4.807244230598072932e+01 1.150581015512720562e+01
-5.099425930022894349e+00 4.810149572374281490e+01 1.161573708005304439e+01
-5.077360626319580739e+00 4.821941357938260353e+01 1.167515594575516502e+01
-5.160098430545722259e+00 4.797107170989393410e+01 1.176523633857926043e+01
-5.073615386178032871e+00 4.802622993410205510e+01 1.116384639865027495e+01
-5.095693207762709953e+00 4.809921004010013235e+01 1.162979010840043514e+01
-4.978334958434107449e+00 4.808544207160242223e+01 1.122413735487508823e+01
-5.038048744012647795e+00 4.815496357673408312e+01 1.143395492792131485e+01
-5.099698727611228222e+00 4.810009400251029632e+01 1.146659751185483067e+01
-5.097368263854325399e+00 4.807109322598889634e+01 1.184095758094827389e+01
-5.025495616633707918e+00 4.803367571803233460e+01 1.194865986955378467e+01
-5.182472681629129774e+00 4.811047661912795093e+01 1.140218890311834699e+01
-5.075220268395536749e+00 4.819123817070085636e+01 1.134286278776004941e+01
-5.042410820576091801e+00 4.808602379645974878e+01 1.130217889079553650e+01
-5.098009108135260092e+00 4.808861432617447207e+01 1.127005044009911217e+01
-5.156069811091836819e+00 4.816336500924649044e+01 1.111894680993522755e+01
-5.091352834925394255e+00 4.804083061835063262e+01 1.149921897347473632e+01
-5.003959882409373172e+00 4.807355940957300788e+01 1.172275683285957371e+01
-5.021502784885091053e+00 4.805137748658446384e+01 1.136222053329259296e+01
-5.185044625503905991e+00 4.813730274394588093e+01 1.189080291534081546e+01
-5.146155808381554841e+00 4.818495660404143877e+01 1.194185647734630784e+01
-5.077036282804675338e+00 4.811147100972413426e+01 1.189309319571216328e+01
-5.188078935019920124e+00 4.804411741828611326e+01 1.149062524019295140e+01
-5.103475536985421890e+00 4.812053945098460872e+01 1.133144652572567246e+01
-5.058168690985052507e+00 4.811358896619545078e+01 1.162865414298013889e+01
-5.063809376985767940e+00 4.805824356602812486e+01 1.107080328427377225e+01
-5.012874527317819684e+00 4.817144478108132688e+01 1.191100994037233463e+01
-5.104444410199135973e+00 4.809315520862323723e+01 1.200649102357146525e+01
-5.077786842890793295e+00 4.809579194660500434e+01 1.165478404853178951e+01
-5.141323189702357688e+00 4.809303396030468747e+01 1.118278433753758350e+01
-5.021752483103955278e+00 4.809802591200541144e+01 1.201964727650973153e+01
-5.088429095858512774e+00 4.805921982803939585e+01 1.174133777338038520e+01
-5.072696593212364213e+00 4.806772700864865300e+01 1.130832254036950246e+01
-5.099382817542039703e+00 4.798934983825385814e+01 1.191690382436920714e+01
-5.097752129167243851e+00 4.809512000979106716e+01 1.176422730272492068e+01
-5.103342179952149671e+00 4.813708487050262619e+01 1.152896412035537210e+01
-5.021629884326328508e+00 4.799087130020205905e+01 1.125625486726510616e+01
-4.971004719984573939e+00 4.810703315541471170e+01 1.149618885689094938e+01
-5.151073314420997029e+00 4.823241937780619537e+01 1.134259335225207543e+01
-4.999518595409325528e+00 4.804904272929461229e+01 1.194091996151958313e+01
-5.063410714114079170e+00 4.807942729121910475e+01 1.168221794876281017e+01
