-5.123533120094558413e+00 4.830962299948628669e+01 2.530547770359374482e+01
-4.828124307609778398e+00 4.821724501397164175e+01 1.610261433786490670e+01
-5.085520071591859370e+00 4.830806685964488167e+01 2.792158715616390197e+01
-4.917043356962618184e+00 4.830573184508845230e+01 2.857098048178711736e+01
-4.994156562515066788e+00 4.830154684999011039e+01 3.083982601560068915e+01
-4.968399707339528959e+00 4.831992685861727210e+01 2.962951664706054089e+01
-4.777179082521559650e+00 4.829678169199949878e+01 1.753516901909172532e+01
-5.098195207237568916e+00 4.836094883059043070e+01 2.286670522878743128e+01
-4.805364056516968851e+00 4.831212409163680377e+01 2.003804008685800753e+01
-4.935904648545780482e+00 4.839410809965292515e+01 1.976817728901655968e+01
-4.966854129844911370e+00 4.827840244618941767e+01 2.988880145744256467e+01
-4.899944289149622101e+00 4.841184147877677901e+01 1.590866840997387932e+01
-5.199568848250877728e+00 4.830271872711256975e+01 1.928928521197308399e+01
-5.017473586404025632e+00 4.835107587361576975e+01 2.717397791284999542e+01
-4.987604468758629395e+00 4.830024389119608941e+01 3.037227459253700346e+01
-4.705766098032247768e+00 4.829546536919199440e+01 1.165622203577708049e+01
-4.984332813359090508e+00 4.824619967351370065e+01 2.726170906241650727e+01
-5.015509593451285220e+00 4.822839348579690721e+01 2.413268134745227300e+01
-4.983221598928564866e+00 4.828226824480511681e+01 3.012514071954097972e+01
-4.803741585812407955e+00 4.829767851810549928e+01 1.965404204323922599e+01
-5.139767900229589515e+00 4.828445374383927202e+01 2.442472392185635854e+01
-5.876645591098846211e+00 4.816888918682175103e+01 8.197700969740136401e+00
-5.243128902104282396e+00 4.811631267367943110e+01 1.615847312824562110e+01
-5.724309052183514268e+00 4.816913472767760140e+01 1.301498222123505855e+01
-5.735809237471022115e+00 4.814742469195199703e+01 1.301058519448961270e+01
-5.333550026694442003e+00 4.797394157500226441e+01 1.476896908708340206e+01
-5.408733191122927941e+00 4.827774830118453764e+01 1.277718039564317287e+01
-5.485463305446612203e+00 4.831029587261593861e+01 9.858751901153119945e+00
-5.473576867042120320e+00 4.797785357505559034e+01 1.591099748419041582e+01
-5.586874655640378329e+00 4.792223395202844216e+01 1.184597247781736584e+01
-5.210191963332547971e+00 4.792595460633147297e+01 9.614002619296165619e+00
-5.627842190730118155e+00 4.815846139367094736e+01 1.643194904908389020e+01
-5.499844665397048971e+00 4.815232446786422571e+01 1.936960484231543589e+01
-5.540022044233603893e+00 4.807505478694159251e+01 1.997024848238051220e+01
-5.606070270352697449e+00 4.822857358910040659e+01 1.385514977630801070e+01
-5.322767894164186053e+00 4.821463549555969053e+01 1.519118572794266875e+01
-5.432710241173559496e+00 4.807672438972694806e+01 2.065254417553849464e+01
-5.587100427507214029e+00 4.806558728984571616e+01 1.852995868996913487e+01
-5.569440197702079764e+00 4.802347496898459411e+01 1.734552800055551458e+01
-5.391764486358734842e+00 4.812214175410705508e+01 2.043457573840758812e+01
-5.216221590610977010e+00 4.814830718258401987e+01 1.540726431664059604e+01
-5.098313716345550084e+00 4.794674113568369478e+01 7.736803885346457577e+00
-5.593185842039155808e+00 4.797110573060830774e+01 1.485046915810330503e+01
-5.351053093022565932e+00 4.790209247217742927e+01 1.037156830628223503e+01
-5.605920323466301980e+00 4.802474478041823858e+01 1.658306162290984176e+01
-5.831229055965853725e+00 4.812798550795062624e+01 9.764433234129899830e+00
-5.440634292933385296e+00 4.811949485948276362e+01 1.994144153312846512e+01
-5.844431752389758650e+00 4.810462768587515114e+01 9.294772727521360522e+00
-5.736778857247013086e+00 4.806297334181550696e+01 1.400884826539966888e+01
-5.785343940822678555e+00 4.808830533963870124e+01 1.244314278947816099e+01
-5.497276473236452965e+00 4.808465925167890020e+01 2.058753377003289131e+01
-5.816040028854237320e+00 4.804868048964509342e+01 1.047559572439967468e+01
-5.418873444411655527e+00 4.814254850359512261e+01 1.954182789815519428e+01
-5.610070346666994112e+00 4.793756116577294790e+01 1.191227418343443034e+01
-5.872905016068976636e+00 4.808244802571596210e+01 8.478543566086566230e+00
-5.477167183602261069e+00 4.802017457259628230e+01 1.817723599085975650e+01
-5.661654432315446961e+00 4.799438282693780877e+01 1.352985715432631153e+01
-5.526949843161984788e+00 4.805966498358759509e+01 1.924205457154414844e+01
-5.515213376819097846e+00 4.809555975006355055e+01 1.999582708098883543e+01
-5.291126913735690884e+00 4.830938679823605497e+01 8.781644692923498141e+00
-5.301817090207225469e+00 4.815317530028182347e+01 1.776344459059912495e+01
-5.300004912749630925e+00 4.806239691886610643e+01 1.825439784981617919e+01
-5.431567463873617996e+00 4.801114645653929358e+01 1.816869451950909209e+01
-5.271063468853790290e+00 4.831739418136907460e+01 8.120555119635135100e+00
-5.128357086457272729e+00 4.801650542152977152e+01 1.140885339441174651e+01
-5.463141862464024889e+00 4.810792036849520059e+01 2.005136982482908437e+01
-5.334694459672675748e+00 4.796479401308727120e+01 1.409874498917160324e+01
-5.409233907665099039e+00 4.813302578453883029e+01 2.014782062303186905e+01
-5.461443251612690730e+00 4.809511108841054750e+01 2.055482390517007829e+01
-5.462944845857073517e+00 4.830216962894617438e+01 1.107991143358468022e+01
-5.515852176442598065e+00 4.804139274481310906e+01 1.933246211841958484e+01
-5.545850419947185195e+00 4.791784587303430243e+01 1.147293932708107533e+01
-5.622804264694964971e+00 4.823283557861940807e+01 1.396914522341179854e+01
-5.532641175370706321e+00 4.809520409772220972e+01 1.935024738490801965e+01
-5.454781285453288220e+00 4.830120212146101721e+01 1.060337679715624226e+01
-5.492519229632885747e+00 4.821168028881637468e+01 1.722882534183645831e+01
-5.273974293329963814e+00 4.789477999015809218e+01 9.324618780259562811e+00
-5.560350557361078749e+00 4.833958190584267811e+01 7.973325321143544642e+00
-5.866826957625280947e+00 4.814186578809718497e+01 8.602253804835472195e+00
-5.066374489975997264e+00 4.818802090508261671e+01 9.310833199490108569e+00
-5.473920674029796984e+00 4.811190562082978772e+01 2.045527008454337548e+01
-5.441555488020717313e+00 4.811667223500685964e+01 2.018959490833407955e+01
-5.301706636934056860e+00 4.794626428900004100e+01 1.247693512011627703e+01
-5.490705094059654456e+00 4.811673703190611917e+01 2.042724189539879021e+01
-5.346271053234322501e+00 4.814934520725149980e+01 1.876831590757280566e+01
-5.452401515682069544e+00 4.810089735990098347e+01 2.094118665284099379e+01
-5.425230025661551103e+00 4.810088032354975240e+01 2.004806800512324827e+01
-5.315058219346887824e+00 4.795760751097068209e+01 1.337588836594254182e+01
-5.405010453872878706e+00 4.787047279019132162e+01 9.422631563165339230e+00
-5.460887141129830091e+00 4.813245347711169586e+01 2.063604454474443983e+01
-5.416175183008705929e+00 4.806827957554874331e+01 2.045319764453293487e+01
-5.770329565921083592e+00 4.807820580394678700e+01 1.222496883586127758e+01
-5.471086532401736591e+00 4.810043951609736723e+01 2.082737448817620063e+01
-5.186204181836139071e+00 4.803254441909033545e+01 1.415382986328671677e+01
-5.536171645635151073e+00 4.816068386806404789e+01 1.821130353979910055e+01
-5.605803823118527873e+00 4.813602810187089887e+01 1.759295774893606890e+01
-5.458742729913260483e+00 4.802082433096737191e+01 1.834829712744786079e+01
-5.235922097923578988e+00 4.815089870704098729e+01 1.593057788268134445e+01
-5.503019600368066477e+00 4.810402410980334764e+01 2.050747633480572674e+01
-5.381524572634774017e+00 4.815228258907543335e+01 1.955026263541197196e+01
-5.178234033321762020e+00 4.819572734482992615e+01 1.258577961884201457e+01
-5.724954204571187866e+00 4.823197726468082180e+01 1.105361248788664241e+01
-5.153030539124536347e+00 4.828641740854165931e+01 7.688517814936054684e+00
-5.778139258778335119e+00 4.825977669564952777e+01 8.413903054424748618e+00
-5.338480588295115403e+00 4.819155062776134457e+01 1.725768060277554028e+01
-5.595578828124437187e+00 4.812233080686696240e+01 1.871199444913114718e+01
-5.330234667972778340e+00 4.805280148921777084e+01 1.890000213352551128e+01
-5.572597451627036236e+00 4.807394102706420114e+01 1.847318582497565487e+01
-5.497213582985914115e+00 4.816289513056513982e+01 1.921855322318796766e+01
-5.366668894533936474e+00 4.807989228257455494e+01 2.016536238611742604e+01
-5.497566040579628499e+00 4.817707986612507653e+01 1.856999894719513478e+01
-5.499982304880981054e+00 4.805901388996920787e+01 1.951998389359979669e+01
-5.453105232435776273e+00 4.805671394882908487e+01 1.951470085216444161e+01
-5.627509474650397969e+00 4.819033802058641669e+01 1.524176475710549283e+01
-5.334338823855510725e+00 4.791170055307153319e+01 1.104082771049343492e+01
-5.253994944802680145e+00 4.825041059521421261e+01 1.227726292248146756e+01
-5.441209412004509360e+00 4.814034152807838041e+01 2.024262129844145619e+01
-5.387079922174686786e+00 4.816586371272037326e+01 1.898201761755258588e+01
-5.404178445692754629e+00 4.823046930741712401e+01 1.523107407056008711e+01
-5.517481394761153624e+00 4.808063525626609902e+01 1.945912190855118951e+01
-5.512216738939383909e+00 4.811341354815698423e+01 2.046252845944409771e+01
-5.447177539843930383e+00 4.807972653440322119e+01 1.988357483000737957e+01
-5.493810992068690169e+00 4.811530491135417975e+01 2.011364012524688860e+01
-5.318858821468276155e+00 4.789283010005569707e+01 9.936255147929983877e+00
-5.576751689282005486e+00 4.827372387140355414e+01 1.145468695810318493e+01
-5.466651729131473125e+00 4.786602411648584621e+01 8.803634532548558767e+00
-5.340061123705791779e+00 4.813257838828642576e+01 1.951959374110985124e+01
-5.554943798381422049e+00 4.824919652935567171e+01 1.337779524035737388e+01
-5.461630744900565659e+00 4.810666947456119402e+01 2.068704534748126989e+01
-5.448321541926046230e+00 4.809691417837415628e+01 2.082692051009798462e+01
-5.509759599170802602e+00 4.825565052025345381e+01 1.400970006721900241e+01
-5.449374277474399619e+00 4.809975471485568477e+01 2.053230647866487146e+01
-5.459913979409177998e+00 4.810074160086608686e+01 2.086771803678887593e+01
-5.360013621468927347e+00 4.805614183315915255e+01 1.933462606586105892e+01
-5.377090770138612363e+00 4.812166404531813413e+01 1.961839544868128726e+01
-5.617812138231995434e+00 4.821273291591477772e+01 1.494413852798357567e+01
-5.296813852771848019e+00 4.832542574010588510e+01 8.566425781192892330e+00
-5.414433518760652930e+00 4.807219560215532539e+01 1.983729521297936316e+01
-5.441790676024524487e+00 4.809968491711221361e+01 2.089825342306140499e+01
-5.449184995042970492e+00 4.811551695061714184e+01 2.072894637179787836e+01
-5.539238708694140811e+00 4.809868294401850619e+01 1.943595841101008048e+01
-5.736592795540758516e+00 4.804893228047255604e+01 1.286990853346994435e+01
-5.712937182222423971e+00 4.821838323692367112e+01 1.182988176677271142e+01
-5.346702280616311143e+00 4.793972687378479236e+01 1.347916297129172847e+01
-5.495408392818845300e+00 4.826143403153429290e+01 1.355815095769430023e+01
-5.213468304871962999e+00 4.790116544679240462e+01 8.277374710182677120e+00
-5.461199574977995574e+00 4.805345234815600719e+01 2.013863568325480102e+01
-5.458914412058298637e+00 4.817788186461246625e+01 1.838187209033929648e+01
-5.519280772917072753e+00 4.802681007328909857e+01 1.804946585037070150e+01
-5.472399322876982275e+00 4.809546657810604131e+01 2.000709647789468093e+01
-5.765783418877710176e+00 4.816635847007299986e+01 1.226761905149146159e+01
-5.441635714672258928e+00 4.787859015968844290e+01 1.010397641722017070e+01
-5.435071912792570181e+00 4.809548638229444606e+01 2.072832011028997101e+01
-5.673128059991204175e+00 4.819750260178959422e+01 1.411029902619235799e+01
-5.332072691707636203e+00 4.789635727370489349e+01 9.767977963965996935e+00
-5.685237479229476421e+00 4.795966029093651883e+01 1.179466079739069961e+01
-5.162755164125456986e+00 4.818470308186093831e+01 1.208517576694962159e+01
-5.625716333045403417e+00 4.816315688811724272e+01 1.651303007982037485e+01
-5.355201371838402835e+00 4.805852968791267443e+01 1.933556465264033974e+01
-5.306224883681875504e+00 4.816161185838861059e+01 1.790743780419314035e+01
-5.529007612040972575e+00 4.785725796909820673e+01 8.091287405888978768e+00
-5.409256579372337725e+00 4.823072954853689964e+01 1.576704225319513775e+01
-5.423947015854130527e+00 4.814733763285993007e+01 1.929549949814311915e+01
-5.600800214568038449e+00 4.797067944893981206e+01 1.437815606577545502e+01
-5.330939733682424908e+00 4.810781689593849109e+01 1.925914469386145811e+01
-5.583740321053991984e+00 4.797971704127709813e+01 1.504133710498197729e+01
-5.464599997296562428e+00 4.809023488543162017e+01 2.022021159989230910e+01
-5.197319140551113215e+00 4.828178872816616263e+01 8.922375930812533440e+00
-5.699765723555733743e+00 4.803714274896744740e+01 1.471113304958412726e+01
-5.462203284364882450e+00 4.811379064657144511e+01 2.067077395658468575e+01
-5.400303574404126117e+00 4.821033506298299187e+01 1.707219305807505805e+01
-5.100924244391313422e+00 4.824779143590455277e+01 7.746711352362760650e+00
-5.316951742078836141e+00 4.812679572464130473e+01 1.845556883520464453e+01
-5.239727763845081654e+00 4.792575210269521335e+01 9.981699233602741472e+00
-5.635677702066790751e+00 4.807112039264328018e+01 1.733583892474261745e+01
-5.583289106873889907e+00 4.805284258172898859e+01 1.845850306446595113e+01
-5.447624559475509720e+00 4.810291960351638352e+01 2.011650422262546201e+01
-5.392117485454828163e+00 4.811904153271304807e+01 2.049684055955933815e+01
-5.618790590997043921e+00 4.819814364439442045e+01 1.520701779712558377e+01
-5.813910450101083427e+00 4.800761338147882640e+01 9.243401816053008702e+00
-5.069207668532764721e+00 4.799359300045416177e+01 9.127997700892990451e+00
-5.801542497811314369e+00 4.821358187412072027e+01 9.728561342780855270e+00
-5.691143195672365707e+00 4.813864788155190411e+01 1.472795626471655694e+01
-5.529475757000595237e+00 4.809893094377527234e+01 2.036782398657490134e+01
-5.313495710441753950e+00 4.797286057484153332e+01 1.484346555151507019e+01
-5.475419453967658612e+00 4.813700801712563759e+01 1.963623083947237191e+01
-5.782625884999238686e+00 4.793911297976512742e+01 8.636809850596325333e+00
-5.545594501739536497e+00 4.810102455812276645e+01 2.000435854575925276e+01
-5.151324237477296286e+00 4.823002183761588668e+01 1.028502895096002590e+01
-5.896833371522116174e+00 4.809088711362139890e+01 8.273479478974856249e+00
-5.605084307698972701e+00 4.794648834150503092e+01 1.295332489905556450e+01
-5.417329238451187301e+00 4.793080172159076113e+01 1.342806228305681238e+01
-5.441455051418508049e+00 4.812891247670153660e+01 2.034204161849748260e+01
-5.560438872192476012e+00 4.800701441742267406e+01 1.670617686285225290e+01
-5.604460795773138493e+00 4.819320324184725735e+01 1.572669764233802780e+01
-5.575437512579993538e+00 4.810299062885991361e+01 1.876125884221139373e+01
-5.519759068196828267e+00 4.801921512197539954e+01 1.800634808523712493e+01
-5.438978017056039782e+00 4.807110395966345351e+01 1.984986328457921445e+01
-5.339719731313136819e+00 4.790539861051178860e+01 1.125787231809225197e+01
-5.255445467490249101e+00 4.792511909528790426e+01 1.081795725713862666e+01
-5.731015918882130578e+00 4.813182570083521483e+01 1.420430487184009039e+01
-5.340150602926373224e+00 4.796131932032192680e+01 1.446790452783049474e+01
-5.448395544052403672e+00 4.808792914700313759e+01 2.034980233700523655e+01
-5.532729367140984067e+00 4.819542152870795348e+01 1.679243471072298277e+01
-5.414144613704768183e+00 4.786351807833223404e+01 8.725777114211693331e+00
-5.485178118690224203e+00 4.813689723536085552e+01 2.027233862059088665e+01
-5.504658927006227387e+00 4.807003381642249451e+01 2.020624203486650217e+01
-5.158524036322429396e+00 4.802207680023084180e+01 1.226838349822987517e+01
-5.387548983593620555e+00 4.811000192409458975e+01 2.008619743712513284e+01
-5.532551814040194138e+00 4.814988768243543404e+01 1.920712532452871457e+01
-5.368922620707716753e+00 4.802011861899623568e+01 1.802010508501628294e+01
-5.538197568446425301e+00 4.802218281903581953e+01 1.782836742858760815e+01
-5.515611968722581970e+00 4.810392904632353606e+01 1.970754116956890911e+01
-5.249839872651397066e+00 4.794205953415111310e+01 1.140471048790122843e+01
-5.591623852271153439e+00 4.820147460846033738e+01 1.536821566055323984e+01
-5.708705023775571874e+00 4.795953941315963931e+01 1.049922687212985473e+01
-5.474298987103328074e+00 4.818531725935668675e+01 1.825544645898110474e+01
-5.779018936603197432e+00 4.820261800092385585e+01 9.999996260087687716e+00
-5.118166002081207644e+00 4.800569076463273888e+01 1.094628565217019300e+01
-5.752345554214768342e+00 4.806123473919818423e+01 1.322397979552225777e+01
-5.641475639420760579e+00 4.821047051364170954e+01 1.392530585106243457e+01
-5.531039629306033767e+00 4.818841217792472520e+01 1.783483124898557293e+01
-5.415444909303162468e+00 4.812071703947426471e+01 2.017973029067018942e+01
-5.416340187270103357e+00 4.813430919299520383e+01 2.013495734432605744e+01
-5.394892214642570849e+00 4.828767549101289092e+01 1.156279392047197341e+01
-5.639871904066113828e+00 4.818727026971104976e+01 1.558380114840134034e+01
-5.803101065008171133e+00 4.806872840028745486e+01 1.088041883753940731e+01
-5.316621670445863757e+00 4.796447734472498325e+01 1.454320553745488986e+01
-5.469923303973409645e+00 4.807212916497928745e+01 1.995178359379215749e+01
-5.420632885562103098e+00 4.810261314136084820e+01 2.059996326356077034e+01
-5.453692947222081422e+00 4.810063978930841699e+01 2.063767600414779579e+01
-5.339061046578235548e+00 4.802132798876508701e+01 1.768813399663991248e+01
-5.371880531553562932e+00 4.821415002432893715e+01 1.644214223366854810e+01
-5.358936244457722431e+00 4.825132441449374454e+01 1.391105623620816090e+01
-5.646700109685141911e+00 4.798746829014692139e+01 1.421739730743057351e+01
-5.342371732081936386e+00 4.798225279609158633e+01 1.596778780183315583e+01
-5.432202574829676500e+00 4.808964521803135028e+01 2.080922979635846204e+01
-5.497203858772059526e+00 4.809222636062415290e+01 1.979453960179149163e+01
-5.546955655598289070e+00 4.786613267608253608e+01 8.088295996259065035e+00
-5.595444848540733318e+00 4.801141882456065701e+01 1.671904667639765307e+01
-5.734492650282837722e+00 4.826567088495986724e+01 9.031440605826391632e+00
-5.499492826934088363e+00 4.802912203717905726e+01 1.875060057672413905e+01
-5.598282502185253584e+00 4.824889096457204118e+01 1.320591177705200892e+01
-5.417058835335160971e+00 4.810131513529495351e+01 2.027737156862739099e+01
-5.462844996075943982e+00 4.813161510099713070e+01 2.046522084020848098e+01
-5.448342018205706516e+00 4.809253983044216341e+01 2.057929953717432170e+01
-5.553440812803621895e+00 4.814132074557380037e+01 1.891380271187790996e+01
-5.236777580840761281e+00 4.794584895310931927e+01 1.094460125539792550e+01
-5.549795913274556014e+00 4.790489336061077097e+01 1.063908100686575864e+01
-5.449308257162013724e+00 4.809817157689523981e+01 2.063209231002052846e+01
-5.387594841186076344e+00 4.798709713543220801e+01 1.693941429670819332e+01
-5.446027822844606625e+00 4.805510770607772741e+01 1.991595931242439477e+01
-5.397533175215094126e+00 4.828710487422463871e+01 1.142799254178800084e+01
-5.547636871937719150e+00 4.813826142864055413e+01 1.951510745640904076e+01
-5.727155813651165772e+00 4.825708814079575149e+01 9.750808230389779396e+00
-5.448244359696468919e+00 4.810095890247328043e+01 2.093716748935050020e+01
-5.269478948897512005e+00 4.815991297440939434e+01 1.639262775539271288e+01
-5.157721566311463057e+00 4.816643321218058560e+01 1.251736939790664849e+01
-5.450864992705363399e+00 4.805197634132854034e+01 1.939729927652815888e+01
-5.410713443822247726e+00 4.832985348200030984e+01 8.875748942855226531e+00
-5.291260137536805352e+00 4.812540631913306299e+01 1.792884188571181525e+01
-5.517151851725735412e+00 4.822784626953275477e+01 1.530424805137690569e+01
-5.501054014568947714e+00 4.811381976765943591e+01 1.993940445084622937e+01
-5.455051395107298973e+00 4.825915130139839704e+01 1.366000013252994805e+01
-5.820765184807309645e+00 4.804557081127530438e+01 1.001178305689128223e+01
-5.312852284954468374e+00 4.812363614716250737e+01 1.863597442099731438e+01
-5.492566290940724905e+00 4.804602709218411150e+01 1.894056442117052441e+01
-5.747304526651417333e+00 4.811382953100506654e+01 1.354483995983465050e+01
-5.330995091942988928e+00 4.804007379414519363e+01 1.856174131883559753e+01
-5.290927930420915359e+00 4.819601060713534935e+01 1.598445401727519055e+01
-5.767737203974551363e+00 4.810082608028778850e+01 1.288259105407632532e+01
-5.390159727420869906e+00 4.806389362193225168e+01 1.984931776166757089e+01
-5.789428052406038638e+00 4.812837061685198137e+01 1.119282001315390396e+01
-5.449177541061128061e+00 4.809935841470093010e+01 2.059000786345194456e+01
-5.425178141060228221e+00 4.814366134298802535e+01 2.013591244845227379e+01
-5.369248019820036077e+00 4.806598470364023257e+01 1.925538911137844877e+01
-5.474072088095628175e+00 4.810327523159520524e+01 1.994961277075372408e+01
-5.446685738928654708e+00 4.798594905695181012e+01 1.716307645665961701e+01
-5.310278350151238058e+00 4.812427469907770217e+01 1.849694107093139905e+01
-5.534590471954198065e+00 4.805857230870431351e+01 1.953324737548736323e+01
-5.209676071795619201e+00 4.798851142606332587e+01 1.287784995510605945e+01
-5.248128035320947404e+00 4.788239889421678441e+01 8.192570290176588443e+00
-5.578186531373809487e+00 4.807949043032973435e+01 1.896728809484298495e+01
-5.411866036105171140e+00 4.805066435252219748e+01 1.957772008218949011e+01
-5.207530564172525800e+00 4.805104683583218872e+01 1.483371031383587280e+01
-5.363747410376093150e+00 4.816817890337808450e+01 1.851245674136667674e+01
-5.413061046420697409e+00 4.817755332569895899e+01 1.875141775766956798e+01
-5.407185477407841390e+00 4.790934031228148626e+01 1.203479199881022055e+01
-5.280106320241537254e+00 4.806723009249253664e+01 1.781547910863575623e+01
-5.617768049033476707e+00 4.815480235887360294e+01 1.744999273896280556e+01
-5.796342112394254897e+00 4.794215973236108397e+01 7.655053781662175538e+00
-5.449811876958292167e+00 4.810496606059125213e+01 2.004772704480026491e+01
-5.284082810263460495e+00 4.829903543596675775e+01 9.998645459843833905e+00
-5.349388524950217771e+00 4.811447945013083682e+01 1.897771661253881703e+01
-5.492031923396156756e+00 4.809498118910949671e+01 2.013353570105210366e+01
-5.628607296268562266e+00 4.818348025409057556e+01 1.618322176021591829e+01
-5.452283236570039548e+00 4.810087278754375717e+01 2.056533468513841711e+01
-5.227262028221421275e+00 4.807992858023849436e+01 1.617226789720389490e+01
-5.588888969140135998e+00 4.807143109974064288e+01 1.871626167454845202e+01
-5.753006731451717037e+00 4.808448445536348714e+01 1.271074580100262352e+01
-5.422334613280277438e+00 4.807039685608176427e+01 2.038761807024756223e+01
-5.863889031863782186e+00 4.818288540776401874e+01 7.706465572036611533e+00
-5.455178006845145866e+00 4.808864546110164895e+01 2.004441010572658755e+01
-5.605342449664814097e+00 4.809132659767475815e+01 1.868121157492747386e+01
-5.426811297647320842e+00 4.807153937828204704e+01 2.007537005583968792e+01
-5.135252491620707183e+00 4.826500195351986378e+01 8.709809491532698900e+00
-5.531795096654808397e+00 4.823812353399416963e+01 1.439662434904196964e+01
-5.413154964682312276e+00 4.824809386367562070e+01 1.410870174981730862e+01
-5.724084818507358285e+00 4.822950731997522666e+01 1.141393805875962641e+01
-5.634822293526365655e+00 4.811342283295984146e+01 1.779478326859776516e+01
-5.534871782747358360e+00 4.794741778362363505e+01 1.335622980107229196e+01
-5.836370960392684104e+00 4.798768801438311016e+01 8.693034223764014357e+00
-5.471639379421457505e+00 4.810487631649064610e+01 2.031219737104135348e+01
-5.566258907916290966e+00 4.812871399425943508e+01 1.938500183652339359e+01
-5.473930939464985101e+00 4.811286340205231937e+01 2.004713810752008385e+01
-5.461506236125030611e+00 4.806696163204352956e+01 1.987205862338646867e+01
-5.381653516826591321e+00 4.812206594879221910e+01 1.997564968233485416e+01
-5.259348011429485936e+00 4.813497329098865407e+01 1.643335564815050631e+01
-5.112499758229160918e+00 4.819341401922945778e+01 1.018312841955914827e+01
-5.488889883500060130e+00 4.789342756988091310e+01 1.099706830690031722e+01
-5.643377613125871051e+00 4.832234660090132650e+01 8.097629849063769925e+00
-5.308307991204460841e+00 4.796146380998116854e+01 1.338720113815494805e+01
-5.348032768876683107e+00 4.796183119497472802e+01 1.496894302281536149e+01
-5.463498790767022051e+00 4.808840913127593097e+01 2.047313260362043863e+01
-5.510142692145621801e+00 4.802158016443399902e+01 1.879054399821009724e+01
-5.462802305471146092e+00 4.794490116340922015e+01 1.396963215928431801e+01
-5.305531575064605931e+00 4.810152287286300066e+01 1.807227671712997363e+01
-5.319888778962159392e+00 4.822547105217186214e+01 1.500056248456484731e+01
-5.708836797082730286e+00 4.827721927563869997e+01 9.661250066840059603e+00
-5.203999022759962401e+00 4.813445192970028330e+01 1.473946212113850862e+01
-5.394989622551711328e+00 4.831633726574631282e+01 9.491358807942608777e+00
-5.873206672467922829e+00 4.804703226172135544e+01 8.062428831604172785e+00
-5.511875492867340576e+00 4.804439043838190315e+01 1.940460741230075570e+01
-5.415877598298189710e+00 4.806214295949258286e+01 1.949057585890264122e+01
-5.330588915334784517e+00 4.809005948504604788e+01 1.867177741318226225e+01
-5.272821655955175046e+00 4.807220186884401869e+01 1.787065669271316182e+01
-5.455120162585504140e+00 4.809939352744518715e+01 2.082470413836192691e+01
-5.564639321628757962e+00 4.828541062927308047e+01 1.175690473816524317e+01
-5.865078062919529600e+00 4.817868042557991259e+01 8.680428593474950105e+00
-5.698773377118655503e+00 4.803975882200027314e+01 1.486072317002737897e+01
-5.509865461164460854e+00 4.815665879254131454e+01 1.921693740754971103e+01
-5.096561656072735147e+00 4.795132670759688409e+01 7.739642839129043494e+00
-5.834527777998937736e+00 4.817387573687107505e+01 9.497438985201382522e+00
-5.143961607758006593e+00 4.822934888025303479e+01 1.024386031893329907e+01
-5.295807820400351140e+00 4.819413875032982020e+01 1.624834962313628495e+01
-5.421959875239412696e+00 4.821075297796991066e+01 1.734461850252327153e+01
-5.627863584633431060e+00 4.792879157535103474e+01 1.163001803224235609e+01
-5.687245923106839740e+00 4.796279087059142654e+01 1.191375940342076944e+01
-5.283295442658724639e+00 4.809700108353365522e+01 1.821956395576706456e+01
-5.316120177051516293e+00 4.809262231781636387e+01 1.865868482108892934e+01
-5.546807595778727951e+00 4.796476051326566648e+01 1.451438497681598605e+01
-5.141762364588682743e+00 4.809019209955181395e+01 1.292162956119693895e+01
-5.462420338252354846e+00 4.808611558867175262e+01 2.026299933229282857e+01
-5.567841530267168437e+00 4.793870472770219493e+01 1.319680489483511998e+01
-5.445596547805874543e+00 4.793462287696723223e+01 1.293756161696946805e+01
-5.393990578846313610e+00 4.812952132287187368e+01 1.943863833629569982e+01
-5.489254599090046760e+00 4.818867780122306499e+01 1.847379985437142835e+01
-5.652505246251463333e+00 4.804867140310021512e+01 1.638637695151381024e+01
-5.310589275235471085e+00 4.810889480043225319e+01 1.879275816917209596e+01
-5.452591960186979669e+00 4.815347039740286306e+01 1.927203574009175213e+01
-5.243541910922639993e+00 4.795420678171345941e+01 1.163379047506806252e+01
-5.449198981960850396e+00 4.809911917009089422e+01 2.072717223646045426e+01
-5.674354592749210724e+00 4.799134266298640483e+01 1.302325000992315829e+01
-5.505475154521272785e+00 4.796652149089792516e+01 1.531416821602632439e+01
-5.401772637409173683e+00 4.802975870089407096e+01 1.892904138384197665e+01
-5.424595412565309083e+00 4.811116736410751571e+01 2.060451350982664920e+01
-5.183797526238189235e+00 4.811006952845003326e+01 1.494483391910361725e+01
-5.367616906380863639e+00 4.833134050704850182e+01 8.513522743315601105e+00
-5.455868641546970821e+00 4.800280315792297614e+01 1.721558291255204765e+01
-5.541463657650842478e+00 4.813098274010926048e+01 1.916281993210623824e+01
-5.692808124866370889e+00 4.794645745587479979e+01 1.093820180097331196e+01
-5.400618405239772102e+00 4.816864940369167414e+01 1.847279366071249385e+01
-5.468148904332643667e+00 4.809373423426399086e+01 2.065249910493222529e+01
-5.266722557152977657e+00 4.812395638992332891e+01 1.733182040514108024e+01
-5.154445779532333738e+00 4.817871415662328616e+01 1.177026942560242695e+01
-5.741490469162539689e+00 4.827062051695544653e+01 8.621964481092675214e+00
-5.303911900208389874e+00 4.827473538867663194e+01 1.145067519005564982e+01
-5.352932447309463271e+00 4.806687191188400732e+01 1.969442849288516229e+01
-5.639641558144568023e+00 4.789363862268557170e+01 8.950520539584220003e+00
-5.345932137874209289e+00 4.805661732874461478e+01 1.924259148957285959e+01
-5.407307777448817632e+00 4.816069284158086816e+01 1.917663091302554079e+01
-5.380194857988030321e+00 4.796914063054016708e+01 1.496388550533481343e+01
-5.477017071581446572e+00 4.817969582304523612e+01 1.853925688258587812e+01
-5.471793889986280135e+00 4.808741486641299900e+01 2.059275734437998295e+01
-5.748740432994146055e+00 4.811495310764976097e+01 1.370790825857193163e+01
-5.496268424186800061e+00 4.792936487638699816e+01 1.296208465811294452e+01
-5.503435336179784976e+00 4.834191817044312955e+01 7.793142031632134703e+00
-5.619410755576399907e+00 4.792364953271076899e+01 1.144412512160845452e+01
-5.485162323670319751e+00 4.805645008766249049e+01 2.001541756552479612e+01
-5.733914409378727761e+00 4.812402398343578369e+01 1.368836971082122034e+01
-5.529600142979277599e+00 4.807399452819333874e+01 2.003344574273952716e+01
-5.395586796549015851e+00 4.788696958226633882e+01 1.012035466322583055e+01
-5.252109521650899282e+00 4.818768488622701796e+01 1.522485476932038928e+01
-5.449458870611945116e+00 4.798494199587415920e+01 1.637337219803256971e+01
-5.311994698328428299e+00 4.812747682278326522e+01 1.821239466468209045e+01
-5.778508659809627801e+00 4.818020309201627782e+01 1.137355298747192833e+01
-5.641198888241533815e+00 4.793888742561798466e+01 1.160727198690762130e+01
-5.502880760183332498e+00 4.824279745400257724e+01 1.484369919703623886e+01
-5.629311997820314772e+00 4.804413148387827448e+01 1.705714778304297496e+01
-5.495550020974163452e+00 4.813162993780084520e+01 1.980592603674110563e+01
-5.449703523650659243e+00 4.809446140275503723e+01 2.030290186333649416e+01
-5.451390287240356791e+00 4.807457283071351384e+01 2.061300490341185920e+01
-5.577707738402880366e+00 4.812113830810586279e+01 1.929061330898860405e+01
-5.836675290437022490e+00 4.817831864851559942e+01 9.081909624787064317e+00
-5.217253726338623387e+00 4.796753170571746239e+01 1.247077903556669654e+01
-5.507136656353199378e+00 4.805579726837589760e+01 1.971403299574148349e+01
-5.225354352507381783e+00 4.794917637677641409e+01 1.145468064069936176e+01
-5.245991620193182214e+00 4.794490834809021607e+01 1.123608448447488328e+01
-5.483178485315307604e+00 4.803906922234117616e+01 1.880510414208265857e+01
-5.341510734802327853e+00 4.826166243081252816e+01 1.282323717245165895e+01
-5.388198989887537316e+00 4.810807282343720459e+01 1.993817802239051673e+01
-5.641322020714354402e+00 4.809760096466798274e+01 1.722498548117243189e+01
-5.278559815704093161e+00 4.811524839957856159e+01 1.789417716363277933e+01
-5.456852130049036020e+00 4.809460563880245587e+01 2.083653110812323206e+01
-5.374196289268660998e+00 4.789609555280213726e+01 1.065571781380391059e+01
-5.797190814620122090e+00 4.815634348010671317e+01 1.080042484634929600e+01
-5.623237480209978933e+00 4.818605273897128427e+01 1.607403073707720864e+01
-5.710123026339958940e+00 4.807212068472384914e+01 1.452636607352803289e+01
-5.206729990661667529e+00 4.819583628679264109e+01 1.313221962354021422e+01
-5.256613811113393098e+00 4.798925143958214790e+01 1.391866075877288011e+01
-5.508141437811248764e+00 4.798386710933483812e+01 1.587864133807200417e+01
-5.321249029296915900e+00 4.801810458443843999e+01 1.662862330867354288e+01
-5.409470946354072218e+00 4.810621004195940031e+01 2.067804916656490732e+01
-5.603315308335524492e+00 4.801704712595478952e+01 1.621534774291349024e+01
-5.561872478336031378e+00 4.820884660787377385e+01 1.653506809850497561e+01
-5.629608234889225571e+00 4.789617092573966772e+01 9.258467032298284494e+00
-5.588317497506540832e+00 4.803376817732385007e+01 1.743273146244763083e+01
-5.389534643458446794e+00 4.800383764733124536e+01 1.792782464677773646e+01
-5.398444064871085857e+00 4.823112433269634636e+01 1.543757494588729529e+01
-5.450889662979704120e+00 4.811631438721666854e+01 2.083266183115693693e+01
-5.460694898285374244e+00 4.804986731837170311e+01 1.923654528266183306e+01
-5.384263907977358876e+00 4.809269846550665761e+01 2.040301419417986040e+01
-5.520015975081337345e+00 4.817503807126916371e+01 1.793187432638466206e+01
-5.523262782276314731e+00 4.822161314408739230e+01 1.537783227446762169e+01
-5.516370013098123692e+00 4.789892260028673832e+01 1.043240655756797786e+01
-5.411768423172772735e+00 4.833968387983423298e+01 8.039499705176258004e+00
-5.786123165655572720e+00 4.793606751547609690e+01 8.397138976021187418e+00
-5.611073253107984549e+00 4.805495415897797074e+01 1.776105919302775149e+01
-5.484874237890526416e+00 4.802206174076393808e+01 1.828067318690362697e+01
-5.313942281123064326e+00 4.815640958222508772e+01 1.763271910165578760e+01
-5.418246079406884519e+00 4.818042606359376379e+01 1.850811952598166243e+01
-5.707582413664302301e+00 4.813143846418653027e+01 1.451840096546430736e+01
-5.479467058686903869e+00 4.811328674513893588e+01 2.016186529834079266e+01
-5.498632740558890397e+00 4.792282534472264643e+01 1.260287672907073464e+01
-5.415525883962740927e+00 4.813701003562187708e+01 2.020640269799548250e+01
-5.589736652395490779e+00 4.822181651435247574e+01 1.440656143286539681e+01
-5.441986897819267810e+00 4.804707256776749347e+01 1.993238743077528241e+01
-5.324972519310081864e+00 4.828874276218673600e+01 1.087434772792433435e+01
-5.396659389135204599e+00 4.792071938339472581e+01 1.205489036796833702e+01
-5.707958435369927308e+00 4.809768223812154986e+01 1.443521509729039742e+01
-5.445560004371634122e+00 4.813732840049152628e+01 2.040874733928211171e+01
-5.313385705019147309e+00 4.793155927228368540e+01 1.212829628629532763e+01
-5.456097864189998425e+00 4.811169093503824001e+01 2.045655613876400380e+01
-5.623363511184391150e+00 4.832526070824861364e+01 7.828514313868745411e+00
-5.582737416124872176e+00 4.822307816823125393e+01 1.456893224327598269e+01
-5.306587081342046375e+00 4.789205101222621863e+01 9.188601777576586471e+00
-5.126991564031855297e+00 4.807169803081568205e+01 1.217185338680395823e+01
-5.295227323030227140e+00 4.814835695593810527e+01 1.761929977777595724e+01
-5.433574779155049050e+00 4.817825988503269485e+01 1.864807808820214063e+01
-5.437631225378847688e+00 4.830456954522381352e+01 1.099317019080004698e+01
-5.599552984402433431e+00 4.809085175699488701e+01 1.851289927370956434e+01
-5.331371977716816701e+00 4.798130547162168824e+01 1.491606873015785695e+01
-5.467021610669561937e+00 4.810839385406768542e+01 2.037629404718875037e+01
-5.507535221639432876e+00 4.806936290238185450e+01 2.000252752163371284e+01
-5.431330040475682353e+00 4.798400479858705836e+01 1.690358033466071319e+01
-5.202164267294828726e+00 4.808031816077014753e+01 1.522881995436084956e+01
-5.478502062942856909e+00 4.809250348443804057e+01 2.006160985443373335e+01
-5.521158670642992483e+00 4.806254707819797289e+01 1.922397185816521414e+01
-5.329620737846297196e+00 4.815564006500849814e+01 1.843500280750191322e+01
-5.507620082200558542e+00 4.810696442837918596e+01 1.982666665197506362e+01
-5.660515310399635069e+00 4.828940339870896992e+01 9.846903950208275802e+00
-5.450063711261833532e+00 4.810088058187834292e+01 2.013197555601763966e+01
-5.702646456894425953e+00 4.798892504519447755e+01 1.238192589562016899e+01
-5.159453584746963806e+00 4.800532084972912372e+01 1.152142294604907313e+01
-5.725398064728829617e+00 4.794698131500196325e+01 1.036013240408868974e+01
-5.548468384020499578e+00 4.801928754603755323e+01 1.742071815488582232e+01
-5.030013769197871021e+00 4.801172676686676510e+01 7.976685950517396151e+00
-5.501730405730489437e+00 4.788175556123957932e+01 9.447667066068506259e+00
-5.700619724589066628e+00 4.818467704377977157e+01 1.346283350497886211e+01
-5.119437302846789883e+00 4.797032491612127103e+01 8.930978130501157963e+00
-5.796656556918060588e+00 4.797500286459880670e+01 8.863046475866010354e+00
-5.341566759946733356e+00 4.800344580736638278e+01 1.679722583957828874e+01
-5.117493691400149203e+00 4.803256684960152256e+01 1.115307559505423285e+01
-5.609332214348857093e+00 4.806772460532302915e+01 1.768438174420424502e+01
-5.446746107894792743e+00 4.808807142100341991e+01 2.028864372550768636e+01
-5.312896689627870650e+00 4.808772756245699043e+01 1.848482576004590072e+01
-5.166129262411448764e+00 4.824710781889794475e+01 9.759959449193923220e+00
-5.415253235362579076e+00 4.790086597049717199e+01 1.082434316568811106e+01
-5.304020195449223429e+00 4.810661009750030104e+01 1.889327384054271164e+01
-5.698399979164734397e+00 4.820853159921612985e+01 1.261402873706971306e+01
-5.621458298257525854e+00 4.819865931556066130e+01 1.497893172192870281e+01
-5.491453546066906277e+00 4.811320595300627190e+01 2.071767335334595117e+01
-5.502593283678627323e+00 4.827696309746449543e+01 1.228726250247034812e+01
-5.407069615110435379e+00 4.830506198938336837e+01 1.038010651804904505e+01
-5.316257983159542455e+00 4.827208883084598767e+01 1.212354410093823454e+01
-5.348252371851295095e+00 4.793112095437483333e+01 1.204695425748610127e+01
-5.631481997976466758e+00 4.814992056980734247e+01 1.697405398333821935e+01
-5.388898216319454093e+00 4.810017991356593114e+01 2.044312596972384455e+01
-5.535541217704337491e+00 4.790948772691948676e+01 1.116749928514292201e+01
-5.395532787499408123e+00 4.811647071676331677e+01 2.025858900975301324e+01
-5.479730947370232030e+00 4.811356411892809604e+01 2.056321144843252924e+01
-5.301004414054705016e+00 4.806362944220160927e+01 1.820692331068532255e+01
-5.446753938620291002e+00 4.801325637802127488e+01 1.783519247558683674e+01
-5.624176325316159186e+00 4.794853411146296907e+01 1.215764727702049441e+01
-5.406590078103485020e+00 4.820470287857596503e+01 1.749131692363324575e+01
-5.877644136103790551e+00 4.812991490161343933e+01 8.531222337584081217e+00
-5.863390144521273051e+00 4.819115883647184972e+01 8.345905317555516234e+00
-5.165801164133926981e+00 4.796103411880191913e+01 1.075527320494444972e+01
-5.228087262326736706e+00 4.801142468208493597e+01 1.439155776117508445e+01
-5.080963132803135274e+00 4.800972916601729423e+01 9.441013598540221707e+00
-5.596336576537808583e+00 4.808351455678482012e+01 1.853038187043268792e+01
-5.276554281140139580e+00 4.813165638024741355e+01 1.729322670993084898e+01
-5.455471056870901059e+00 4.824631628061525390e+01 1.495770788098226944e+01
-5.365568453898161394e+00 4.816086264534588679e+01 1.884659522938055076e+01
-5.609914915738202446e+00 4.823965197804778882e+01 1.337834639368545808e+01
-5.469362800058944707e+00 4.817024149132387834e+01 1.845054372122802633e+01
-5.447140507450361824e+00 4.809927531050038141e+01 2.006409929015978832e+01
-5.462977739099390995e+00 4.809842944989510016e+01 2.098068884006401902e+01
-5.585299151271828855e+00 4.826092366196083816e+01 1.285165147673722430e+01
-5.402320809800075452e+00 4.803924995635173900e+01 1.904560798867097660e+01
-5.538309426234421906e+00 4.827872608567844281e+01 1.155091536458562729e+01
-5.258934386281451268e+00 4.815076947318487299e+01 1.604931650431747059e+01
-5.719751641705871137e+00 4.812419315167962708e+01 1.432778578273065406e+01
-5.342899735626683189e+00 4.808329970661609565e+01 1.919384274450079175e+01
-5.330876742900422904e+00 4.813528266241934972e+01 1.918170903764778146e+01
-5.371676554011911797e+00 4.795875453556127610e+01 1.477285478765535487e+01
-5.061987435141958258e+00 4.798707271542291153e+01 7.816645966096861464e+00
-5.529953093389534224e+00 4.798481789759723881e+01 1.590273844699950345e+01
-5.428293530683053092e+00 4.810443310162003172e+01 2.074275209651551677e+01
-5.410779576602497976e+00 4.821573212908305806e+01 1.687990979141801162e+01
-5.417455018579469872e+00 4.805256973728377545e+01 1.984826177253991730e+01
-5.384803905075576935e+00 4.790081654546271750e+01 1.068886403872548208e+01
-5.374380778599784136e+00 4.809645694970977559e+01 1.965431163386881508e+01
-5.363067998223691291e+00 4.803325034545601113e+01 1.811146483099573956e+01
-5.570079985225564911e+00 4.803832855835751303e+01 1.758060801341349588e+01
-5.647546524423225023e+00 4.801363648355861358e+01 1.559804074153260345e+01
-5.468051090629134414e+00 4.812081330643641053e+01 2.031039448095761912e+01
-5.412944139920523590e+00 4.812043530946525038e+01 2.034350178102514306e+01
-5.105254276688700799e+00 4.798255228257493599e+01 8.994412387320100066e+00
-5.625887036618657078e+00 4.788723999247493168e+01 9.175532459898075643e+00
-5.570547847539748965e+00 4.815357669589343459e+01 1.865778211454652791e+01
-5.458049397424820981e+00 4.809438585482357809e+01 2.074239704379247939e+01
-5.356947294349962974e+00 4.815014809669531104e+01 1.877032482651950218e+01
-5.662674052843421180e+00 4.811552118181751325e+01 1.643168362022305828e+01
-5.576911338550288200e+00 4.819561666810798783e+01 1.627279642679135563e+01
-5.470331457089788962e+00 4.804477302113097181e+01 1.922701683382462434e+01
-5.505168456077894845e+00 4.810714046104765629e+01 2.029949979558406881e+01
-5.399812961463693384e+00 4.811009222495579962e+01 1.972879781653573161e+01
-5.308057362624464481e+00 4.807409643442478142e+01 1.868929548524406314e+01
-5.271283764376369696e+00 4.792344477890370058e+01 1.039031709709139761e+01
-5.745633802096604903e+00 4.810098559685595632e+01 1.327803430278156149e+01
-5.862760322008165659e+00 4.815604641183801249e+01 8.946877466698110126e+00
-5.269596674528560953e+00 4.816450009840148994e+01 1.615851572569541972e+01
-5.607091671876115235e+00 4.832590553332723715e+01 7.929567143087265180e+00
-5.452742546307766780e+00 4.809984231833889368e+01 2.015119749727831433e+01
-5.611983372230560541e+00 4.802263604624054949e+01 1.622279609387614130e+01
-5.458718147861855385e+00 4.817898008323578551e+01 1.902651604416522702e+01
-5.430205271322688709e+00 4.819553261060593030e+01 1.727761655464461654e+01
-5.651815189502759296e+00 4.820953378161252800e+01 1.434277818380104286e+01
-5.402509864306493270e+00 4.815727075559588855e+01 1.915184425331050377e+01
-5.163091165660538273e+00 4.817786725308636164e+01 1.286131124067709663e+01
-5.740858737879749540e+00 4.818331244456594220e+01 1.223405962263011659e+01
-5.672713982836132374e+00 4.813454178636595771e+01 1.559245820399643989e+01
-5.542525522548912065e+00 4.786231720290530234e+01 8.586888471391446842e+00
-5.150777736106793903e+00 4.799665213699769595e+01 1.151267791720189315e+01
-5.423942822335124703e+00 4.818174126977134364e+01 1.853603943510503882e+01
-5.825211671801947766e+00 4.806988650738455959e+01 9.957510628892627835e+00
-5.793132081905604025e+00 4.820211032113363814e+01 1.024771769090782669e+01
-5.279589667207366332e+00 4.831077690902115762e+01 8.608816035369800446e+00
-5.476108071757499474e+00 4.790950051769413420e+01 1.116673835441159746e+01
-5.352732738206924523e+00 4.805209671176756814e+01 1.873449724922280524e+01
-5.347466471549606304e+00 4.793527772992499081e+01 1.258981412171630332e+01
-5.330666365548224483e+00 4.815723176476680578e+01 1.854163892464225682e+01
-5.664419406372711130e+00 4.815131434313736492e+01 1.535863338415627588e+01
-5.481876116916438946e+00 4.810271657565742487e+01 2.026155670160861177e+01
-5.463577546248053807e+00 4.833033663508727074e+01 8.924407607193053593e+00
-5.688936479698905480e+00 4.829927550131926495e+01 8.678166510397563371e+00
-5.433272721840505248e+00 4.789284861111700309e+01 1.101826761824984047e+01
-5.552129365139963468e+00 4.804533899792050988e+01 1.880384001883400202e+01
-5.203310179288809678e+00 4.794469556241010366e+01 1.081047947786854735e+01
-5.486152328055061922e+00 4.822635417546378278e+01 1.611655521033893379e+01
-5.474542958156476402e+00 4.809090963715252087e+01 2.056925009584799824e+01
-5.389260271669052749e+00 4.807646612057047264e+01 2.030623161733928228e+01
-5.763949886864462080e+00 4.813298585383909511e+01 1.232993374998289937e+01
-5.296249948481624337e+00 4.832841834599616959e+01 7.905710616260877011e+00
-5.520894665387895195e+00 4.810975326581205280e+01 1.990338865859282436e+01
-5.492251674733079625e+00 4.803440233661890346e+01 1.873360044147521108e+01
-5.439521487100318353e+00 4.788130347671334874e+01 9.984957037938791302e+00
-5.482254046706146688e+00 4.809059811079012547e+01 1.991384691001021068e+01
-5.443546469981875191e+00 4.813615648010193837e+01 2.021674778919409121e+01
-5.342248548515629913e+00 4.814512970587392715e+01 1.866354258965368373e+01
-5.496669389713646936e+00 4.788808555617293905e+01 9.695994545092229799e+00
-5.382305343066878578e+00 4.821978814572465666e+01 1.585893294468836245e+01
-5.490881656590541837e+00 4.805571201755449806e+01 1.936933302944489554e+01
-5.620606129555351771e+00 4.804042196267368325e+01 1.709722613118138668e+01
-5.646694948243881740e+00 4.792803829228316204e+01 1.084840109138521491e+01
-5.449860668769234806e+00 4.810124491626522314e+01 2.001814250112424176e+01
-5.515453402910018177e+00 4.808911592832958348e+01 1.980868235418581591e+01
-5.361182272395248916e+00 4.817883933489878245e+01 1.797175844797500588e+01
-5.684601532977906935e+00 4.801255580668114931e+01 1.391658022243661996e+01
-5.540674856721922836e+00 4.787277057711994388e+01 8.893214573984829840e+00
-5.453152139362955175e+00 4.808563434511590629e+01 2.074057455064883726e+01
-5.446816076067984902e+00 4.806827956521034650e+01 2.055907551272619571e+01
-5.648227650858893334e+00 4.805390982376145104e+01 1.652297677380471086e+01
-5.606913391030292182e+00 4.809264365753760728e+01 1.825111963108755475e+01
-5.638369073742414805e+00 4.824965685862638054e+01 1.243062012505880354e+01
-5.433577038703560014e+00 4.808693454006210999e+01 2.024941964635199554e+01
-5.454462140198344855e+00 4.810139160569123362e+01 2.037018166036753186e+01
-5.495086296488548960e+00 4.820386438268572249e+01 1.737211982662573817e+01
-5.707033231157544684e+00 4.817585015330874398e+01 1.397068155364565101e+01
-5.856026367382935582e+00 4.812577537293646657e+01 8.962400534355316140e+00
-5.681195988317248258e+00 4.802197927392114707e+01 1.401435048544160900e+01
-5.030146626770344298e+00 4.801083061672183305e+01 7.826313944988863902e+00
-5.527048695230847741e+00 4.834572114789638420e+01 8.276696498356194809e+00
-5.316152507175726960e+00 4.811103981837283783e+01 1.874151287916838271e+01
-5.728424559414618145e+00 4.801518461318720910e+01 1.248095274405046951e+01
-5.301058841962322354e+00 4.804782948319031988e+01 1.778506969589013309e+01
-5.172574484568158049e+00 4.821818366730486360e+01 1.168368035608391686e+01
-5.623075091098337808e+00 4.819043177722493709e+01 1.521826349090898844e+01
-5.386966691721544187e+00 4.811113961234274683e+01 2.028568817093063004e+01
-5.193777834250194125e+00 4.827720617823469951e+01 8.810589430602473016e+00
-5.631191107052075040e+00 4.813495928521092537e+01 1.765038860112252905e+01
-5.242211294746951467e+00 4.805373774459933145e+01 1.571665627238606255e+01
-5.562750638362413902e+00 4.813794506189117328e+01 1.848195833941646526e+01
-5.442789661324132666e+00 4.812306384432005046e+01 2.066170517543412544e+01
-5.302000345758609789e+00 4.833322177124777141e+01 8.092229416849601620e+00
-5.781804327737006588e+00 4.794952763744174007e+01 8.741042171193425858e+00
-5.128296679144202841e+00 4.796064378830314467e+01 9.778674491358902543e+00
-5.641104713634113921e+00 4.796518591912684570e+01 1.314578871230751034e+01
-5.189441685344886146e+00 4.807193825583659219e+01 1.433964596239733424e+01
-5.727055762377236015e+00 4.818860017135501295e+01 1.256656839520366375e+01
