-5.122795692248735655e+00 4.820155536002235408e+01 1.541750892250963823e+01
-5.140932212117985678e+00 4.821205551000050349e+01 1.564708537087558682e+01
-5.205255844526109676e+00 4.815960194991277632e+01 1.256265901438810317e+01
-5.126824286909756445e+00 4.823736254599969442e+01 1.371488594253164806e+01
-5.163384825424128799e+00 4.820637763271990650e+01 1.492799245779654882e+01
-5.143581531484556102e+00 4.817682207759759905e+01 1.484263993299743056e+01
-5.134074693889501440e+00 4.819392944538602563e+01 1.555820227376668896e+01
-5.168529722281530070e+00 4.819586921583547934e+01 1.526308855862423108e+01
-5.071320190869839983e+00 4.825087247190244000e+01 1.074318258298156437e+01
-5.121042463034914505e+00 4.829662466336192495e+01 6.702105869867586385e+00
-5.055965031324778813e+00 4.820720259894456916e+01 1.229310285404348946e+01
-5.053532862737736941e+00 4.828501459806671647e+01 6.253502713273981328e+00
-5.183825671031067728e+00 4.824778994604579196e+01 1.168909624321848284e+01
-5.307145666456050570e+00 4.819138482786809163e+01 8.950519147592073566e+00
-5.154714851794681252e+00 4.819966464396151196e+01 1.593896330306395903e+01
-5.286448482548489203e+00 4.814253912872036523e+01 6.889418867080284947e+00
-5.057533393944310340e+00 4.825539772085893020e+01 9.554940068087297789e+00
-5.207814767899328068e+00 4.817084517991483494e+01 1.354712776855477152e+01
-5.173914581731779982e+00 4.819281233156358724e+01 1.544103132441144943e+01
-5.138109022603288167e+00 4.821518493872224553e+01 1.524214802414526204e+01
-4.997219350786627601e+00 4.821265628234067435e+01 9.038411058271266896e+00
-5.004354666182400990e+00 4.821431050666636509e+01 9.248149326908341905e+00
-5.148508819127653346e+00 4.820058523347305623e+01 1.500376638706759813e+01
-5.017978239789324668e+00 4.827422779372261630e+01 6.356726322747732638e+00
-5.165089730991240025e+00 4.829512753881352438e+01 6.954184194365693905e+00
-5.191847536643262373e+00 4.812988421571244402e+01 8.902459209303836829e+00
-5.152047768968645691e+00 4.819227862153843489e+01 1.510981077046724863e+01
-5.143505176486060648e+00 4.818424006691993355e+01 1.522529627533802632e+01
-5.098573170634111307e+00 4.817959123467443305e+01 1.395896729927227753e+01
-5.014721901201061094e+00 4.819833903435728928e+01 1.027365161037954699e+01
-5.031696237382787373e+00 4.816436876148823387e+01 9.607002457570816389e+00
-5.156899636074964377e+00 4.816021637837081215e+01 1.341297756740351232e+01
-5.132567682428032185e+00 4.818698862439273256e+01 1.545513771166297978e+01
-5.167505130783379919e+00 4.817979673062381352e+01 1.506980959069258574e+01
-5.188984772492617914e+00 4.816564360919072385e+01 1.327324167938202315e+01
-5.326122146891667519e+00 4.816644948724853492e+01 7.015726732119653697e+00
-5.255930329510399623e+00 4.826201187340154064e+01 8.633804636200562044e+00
-5.076376967103152005e+00 4.823646107023456864e+01 1.166282899850686050e+01
-5.137068499419619627e+00 4.818277348743549737e+01 1.525790900821063723e+01
-5.214590079237262366e+00 4.811743984697960030e+01 6.928405196073487815e+00
-5.148526428935643828e+00 4.820043882580048944e+01 1.524006835307982399e+01
-5.140662754584436556e+00 4.819549544361915139e+01 1.533725431863442523e+01
-5.236199898374714223e+00 4.819288042567203689e+01 1.330055352506716204e+01
-5.295637318977123975e+00 4.823140519396594783e+01 8.835100496020599437e+00
-5.277631111788799068e+00 4.823309764956406553e+01 9.035371963999011768e+00
-5.209080202630818945e+00 4.812147516551620896e+01 7.460568355443273347e+00
-4.977280426245395795e+00 4.816638109424979319e+01 6.362241832580794565e+00
-5.123536629629985129e+00 4.810810049513953857e+01 6.685649167834849749e+00
-5.214587436017354527e+00 4.814249698144829637e+01 1.057108178204263638e+01
-5.152015200773623071e+00 4.823845783291604050e+01 1.379061080147259943e+01
-5.146712973398616775e+00 4.820128584273118832e+01 1.514830779021850837e+01
-5.002439676627084886e+00 4.817403945472506877e+01 8.514558997500190074e+00
-5.048824856478757894e+00 4.819436976624123758e+01 1.185929310069557374e+01
-5.122865580074163816e+00 4.816395894159295210e+01 1.316406129733951147e+01
-5.206769786523175902e+00 4.824308350779513432e+01 1.151922575691863848e+01
-5.162989873525169138e+00 4.827759248269512682e+01 8.609664663751392055e+00
-5.137532940307930396e+00 4.818310130759193299e+01 1.454403971448246224e+01
-5.125192445280805309e+00 4.821667440722730191e+01 1.504840602828946317e+01
-5.118978213774132868e+00 4.818308925573612100e+01 1.449065426362600384e+01
-5.022768828450007383e+00 4.821476043345537477e+01 9.903451696974908458e+00
-5.124704495646902558e+00 4.810705421974683560e+01 6.663593943532488240e+00
-5.100587463347392436e+00 4.824540869528183862e+01 1.223030895667857543e+01
-5.000633112732739249e+00 4.813569960432444361e+01 5.748402087269179006e+00
-5.079226661520510611e+00 4.814538461120766755e+01 1.065863383462601632e+01
-5.095319053296133660e+00 4.824243179872311060e+01 1.166592366203279951e+01
-5.275840675445216732e+00 4.815813411914598419e+01 8.862322019839126597e+00
-5.192256796569598265e+00 4.814239245162715264e+01 1.080181252496225319e+01
-5.137917204424043760e+00 4.820262136317723645e+01 1.557215671319536554e+01
-5.118624872391476011e+00 4.824420537196271397e+01 1.254651226956661958e+01
-5.035014836938592531e+00 4.817006530184958990e+01 9.893866546642673399e+00
-5.093732601526356873e+00 4.819745477814656454e+01 1.434534280681112328e+01
-5.153066529668799411e+00 4.823014637223740664e+01 1.378528196456546340e+01
-5.101563105513418961e+00 4.822503735921498702e+01 1.378565088294354801e+01
-5.290493968845573214e+00 4.816873729153218164e+01 9.121469199053613863e+00
-5.142345129139322957e+00 4.821528613796046869e+01 1.474812977654891100e+01
-5.160513989867538065e+00 4.820066273740793861e+01 1.563492527469403903e+01
-5.346523646180226130e+00 4.821836483147422570e+01 5.874157003738186944e+00
-5.109179149861454938e+00 4.816931452785321710e+01 1.348868305419513547e+01
-4.972349137862911661e+00 4.818064574900957808e+01 6.880542108619818187e+00
-5.196275141161240896e+00 4.814559671070451685e+01 1.068198787535846961e+01
-5.156746102139051047e+00 4.818915964015715758e+01 1.534306672121822324e+01
-5.089079056476665031e+00 4.820893044806299343e+01 1.362122601039296299e+01
-5.261363882623413701e+00 4.814970449970789446e+01 8.930321127992291608e+00
-5.302116292280625309e+00 4.821000074465470675e+01 8.841116760675447495e+00
-5.072188776089561202e+00 4.820994033284619462e+01 1.285397814624615087e+01
-5.152164926862575989e+00 4.816751604600383274e+01 1.428414794961796375e+01
-4.973615393104370064e+00 4.817077928900198458e+01 6.382380989192729892e+00
-5.155928894937265916e+00 4.819763478232351162e+01 1.527234782604345043e+01
-5.087840314809419340e+00 4.819810761290690238e+01 1.385446142749245979e+01
-5.253632104244511325e+00 4.822740301525581685e+01 1.071528526538197923e+01
-5.028598355053978786e+00 4.826901835902799576e+01 7.249567386247270484e+00
-5.073166697264933411e+00 4.825089529028430491e+01 1.065307145722872839e+01
-5.181005826640238787e+00 4.813512948874381436e+01 1.042236587928580605e+01
-5.092615001063646396e+00 4.817316206533419631e+01 1.325939158584507105e+01
-5.290415402044588156e+00 4.815389963725996125e+01 8.299510852817313378e+00
-5.203933178480493638e+00 4.819182508744532356e+01 1.457056534496691036e+01
-5.177561890101145536e+00 4.821973043574227802e+01 1.467915770937462305e+01
-5.200185071181434360e+00 4.817714194172447861e+01 1.375005477575753154e+01
-5.121123998930043442e+00 4.819074516576463196e+01 1.530959704188747672e+01
-5.180310662425179125e+00 4.821777513042530927e+01 1.425320446837893762e+01
-5.046988156558422922e+00 4.819501910763616337e+01 1.157977008933881713e+01
-5.167522175257984962e+00 4.821114143804550878e+01 1.546454148369468662e+01
-5.233421204940259308e+00 4.826736422207003585e+01 8.251310879499524020e+00
-5.216008810209151747e+00 4.815616687037202581e+01 1.207184822811149694e+01
-5.204324225199285614e+00 4.819217635278300804e+01 1.414641820598363076e+01
-5.068910604954916188e+00 4.820560972855006554e+01 1.298132566904825858e+01
-5.147286003641816876e+00 4.820482346965511766e+01 1.580838889307145223e+01
-5.109348169174016796e+00 4.815842233137483674e+01 1.256182960140112570e+01
-5.241206334034658632e+00 4.819898475854832753e+01 1.251565821508842191e+01
-5.055793749816791305e+00 4.823884146919512261e+01 1.131739791469811252e+01
-5.333613820186568155e+00 4.818854419125918298e+01 6.723675078148795947e+00
-5.000534779837038535e+00 4.817384866531186560e+01 8.654938265515159657e+00
-5.098116196749471918e+00 4.820288604128243293e+01 1.424022985965559940e+01
-5.190530572574305168e+00 4.810938980078763905e+01 6.598035446661986825e+00
-5.098701378714925347e+00 4.816681633831627352e+01 1.330745946323677664e+01
-5.011834795653526520e+00 4.816900034826664267e+01 9.207280885979745477e+00
-5.241266198007132004e+00 4.820563261566852731e+01 1.282524916740261745e+01
-5.124693607136389772e+00 4.820107101140289529e+01 1.542935801409804952e+01
-5.172131134503826999e+00 4.823985343713970053e+01 1.278622837719674976e+01
-5.098887626081903157e+00 4.823267041181400572e+01 1.327871750866086842e+01
-5.002902272648341864e+00 4.817003048407892862e+01 8.895638042912569432e+00
-5.100179801534863167e+00 4.824157707082168400e+01 1.224159296358965499e+01
-5.158682040100114996e+00 4.815498916014671948e+01 1.234089854062716185e+01
-5.314441827169136268e+00 4.814558090256967660e+01 6.020901287410625358e+00
-5.126733289700358576e+00 4.818694361557226102e+01 1.478533250943885591e+01
-5.152463900637851424e+00 4.820085349572651268e+01 1.552763118323905722e+01
-5.152342001780951364e+00 4.820150846271460665e+01 1.529741353401150761e+01
-5.164843941162613916e+00 4.813193672602999129e+01 1.030078838433899335e+01
-5.124105993147810345e+00 4.826663018076907719e+01 9.517768008532584645e+00
-5.079656859726793705e+00 4.819815893496688375e+01 1.357136708907891354e+01
-5.260556793076826665e+00 4.827776834954888585e+01 6.701685173041409982e+00
-5.200082049170375420e+00 4.820016737011560082e+01 1.422448170493331787e+01
-5.261875768422187072e+00 4.817381172993636085e+01 1.123687821144834409e+01
-5.151289075593317612e+00 4.821389942189323108e+01 1.552121851267425434e+01
-5.048272241475044275e+00 4.820048409286486191e+01 1.208714455188554915e+01
-5.159005217024973611e+00 4.818299394754100717e+01 1.476062742522088733e+01
-5.160167067152270803e+00 4.820614887565611895e+01 1.545329947029019912e+01
-5.335352720252823921e+00 4.816602643809331141e+01 6.386024724486503601e+00
-5.178142796317215968e+00 4.828664640049684209e+01 7.831256575381285501e+00
-5.105803789507993962e+00 4.822976130621584190e+01 1.349626729111311185e+01
-5.159526336582256789e+00 4.819705919581846842e+01 1.519673167487515286e+01
-5.071014565722198775e+00 4.821112106649091089e+01 1.284747093135565166e+01
-5.026030309807654639e+00 4.824692174506019171e+01 8.708240347282053762e+00
-5.147495501758965197e+00 4.817783667563434591e+01 1.438380945573575964e+01
-5.221797527970704955e+00 4.820976289414387850e+01 1.333827316261854712e+01
-5.034696292944140339e+00 4.827746872877966666e+01 6.837594460026922505e+00
-5.146388949960750026e+00 4.819992549876974408e+01 1.538534896454549994e+01
-5.323684024109303081e+00 4.819694374458246955e+01 8.047350515975418617e+00
-5.144632201295163298e+00 4.818823433091188235e+01 1.537243744651330957e+01
-5.135082818521174097e+00 4.823411496562893319e+01 1.338914216585199313e+01
-5.048624972774452324e+00 4.813999045117283515e+01 8.149331236827368485e+00
-5.107000581145888951e+00 4.821491109104618999e+01 1.491185077256982261e+01
-5.122949957593823989e+00 4.819098165286108326e+01 1.482254553210963977e+01
-5.137364347348202465e+00 4.823501813087106882e+01 1.379124387605556024e+01
-5.110801664961403645e+00 4.829647576234295059e+01 6.620268274882296744e+00
-5.081755616958213650e+00 4.821730644662600440e+01 1.332825416477548330e+01
-5.156060155955987767e+00 4.825006965059900921e+01 1.212607471258793090e+01
-5.007438753112134933e+00 4.820658571307623674e+01 9.643707225392761373e+00
-5.178727828149739310e+00 4.823409026038310543e+01 1.380902706092601484e+01
-5.170831095483968021e+00 4.818110764566041126e+01 1.521445576845842496e+01
-5.087923415482824119e+00 4.820834895533233322e+01 1.449652318441352250e+01
-5.112576778106094011e+00 4.820978986414792189e+01 1.464122805896051993e+01
-5.270012632501117622e+00 4.818175073438206368e+01 1.023464119708729925e+01
-5.239919098567902722e+00 4.815552076408653193e+01 1.053793029972215400e+01
-5.198593621853849989e+00 4.819343198653829319e+01 1.444510499941063308e+01
-5.152935085392286396e+00 4.822844355374375880e+01 1.415312594743777552e+01
-5.132700354963332323e+00 4.821274855056865505e+01 1.548334492601481394e+01
-4.979533256142107511e+00 4.816691537192639316e+01 7.387581656832932886e+00
-5.161423666864619619e+00 4.821101189542391552e+01 1.524351958590754208e+01
-4.980077677387377832e+00 4.821645989693944045e+01 7.308943654951316482e+00
-5.061235040213079017e+00 4.822537564759492312e+01 1.231205940700792922e+01
-5.275479957839868561e+00 4.824293496130243852e+01 8.854533875600598236e+00
-5.117894469671931290e+00 4.817882738225268469e+01 1.419467790977750710e+01
-5.212395304524197748e+00 4.820549219265321739e+01 1.448192178530639396e+01
-5.108936446031158596e+00 4.827972918145917447e+01 8.343399867820771476e+00
-4.965441151366085215e+00 4.821811543967140778e+01 7.098161426109760086e+00
-5.046363112778566418e+00 4.815149418712465490e+01 9.944700719977948467e+00
-5.077352764978527944e+00 4.828519796813866094e+01 7.315852623467983484e+00
-5.215037525702964416e+00 4.825202231231062910e+01 1.093629939115503902e+01
-5.041780045329803173e+00 4.821850320498907649e+01 1.151153349722370045e+01
-5.140348197692250487e+00 4.819568425825647751e+01 1.579199692874036387e+01
-5.222017456831236970e+00 4.824656620022977904e+01 1.097775776040567663e+01
-4.980991662731896419e+00 4.820576134771334864e+01 7.393445434466656252e+00
-5.196145372470154733e+00 4.822134637058018569e+01 1.413825984808667613e+01
-5.146592271991273115e+00 4.820225260920814492e+01 1.566419660895634713e+01
-5.106873584124057786e+00 4.817387880350154461e+01 1.337709190593926500e+01
-5.189369255601993025e+00 4.819635095207654985e+01 1.507231470310720667e+01
-5.299252946821773946e+00 4.824192350938092488e+01 8.202911510423531283e+00
-5.237569286540251667e+00 4.827806795940293938e+01 6.961432474617053501e+00
-5.204690925864297490e+00 4.818269511087135015e+01 1.381960055716708879e+01
-5.219544886898524361e+00 4.820698193337565840e+01 1.421930030513488674e+01
-5.003594086102950200e+00 4.816559827950280237e+01 8.024457413571962405e+00
-5.201359907896490498e+00 4.814277848896645651e+01 1.087440897934038908e+01
-5.144814045971762617e+00 4.820897657294925409e+01 1.572530666396429133e+01
-5.147152852380278532e+00 4.815975036800987397e+01 1.363167561376469372e+01
-5.014397413220520683e+00 4.819409634914455154e+01 9.648087081094084638e+00
-5.184297220978003828e+00 4.818173950215951606e+01 1.497751527541891470e+01
-5.184002477282022348e+00 4.819166862114216343e+01 1.535784630761034997e+01
-5.094562610430327432e+00 4.820019163417185126e+01 1.478113470176597311e+01
-5.105015017360937435e+00 4.825356079313846891e+01 1.077690651758023321e+01
-5.137660652871368860e+00 4.821264473014146290e+01 1.560986941447523435e+01
-5.111575691235438867e+00 4.816344333650366849e+01 1.313304126156392648e+01
-5.167034122518034955e+00 4.812918992576432231e+01 9.089328857442255938e+00
-5.260998805702384651e+00 4.814255379299011395e+01 8.507250860113765967e+00
-5.196500614278526164e+00 4.822912123271515838e+01 1.393855435036152279e+01
-5.244288951583789604e+00 4.814382593992841208e+01 9.664417668614859735e+00
-5.174736892285014989e+00 4.818945129794542481e+01 1.465932474792341189e+01
-5.144199338869792193e+00 4.822093428213450039e+01 1.486195401702238073e+01
-5.211057298453990683e+00 4.822314171739141386e+01 1.296024871412024737e+01
-5.164336985529734747e+00 4.818345513758950460e+01 1.452733833181323497e+01
-5.080160912323996136e+00 4.826484985198866440e+01 9.542465001368826805e+00
-5.208973740041461298e+00 4.828985513504174065e+01 6.905690791673083417e+00
-5.194241026450285403e+00 4.826982213711026048e+01 8.889487367261232009e+00
-5.245887879460142678e+00 4.819601852085408211e+01 1.207857884168656248e+01
-5.181556940788772714e+00 4.826597498369393691e+01 1.022754536948587401e+01
-5.157004017914207594e+00 4.820001388138356901e+01 1.510872365469919210e+01
-5.183034665542957775e+00 4.824351911010020899e+01 1.269119685572176337e+01
-5.149439941112056829e+00 4.825740471076852600e+01 1.119748341027424132e+01
-5.246770712379110080e+00 4.822268652835996505e+01 1.169876087142297472e+01
-5.006705078015453836e+00 4.817457021289241226e+01 9.046423119723250750e+00
-5.184332999181981982e+00 4.818733451001816803e+01 1.520164108706579853e+01
-5.188997100878695257e+00 4.819923225429587177e+01 1.506418108169552106e+01
-5.195811190354902465e+00 4.812206493126087992e+01 8.575405511994945940e+00
-5.190013674235302688e+00 4.814615481433631317e+01 1.154112331515437440e+01
-5.088647928005903154e+00 4.823286407817276000e+01 1.298776269926470128e+01
-5.183296903357820895e+00 4.822163726253253202e+01 1.469422257221244976e+01
-5.099925198641559909e+00 4.818680017353911182e+01 1.387511126441018128e+01
-5.153639228588203558e+00 4.820957198839244739e+01 1.522142782068615929e+01
-4.968104419313116082e+00 4.822553253692129971e+01 6.404164293025425891e+00
-5.166459762270602774e+00 4.813659246621953258e+01 1.057755006530884501e+01
-5.088998700595331215e+00 4.822258060952709968e+01 1.335083009437245316e+01
-5.204263669594327624e+00 4.817414195974683366e+01 1.381211738886493912e+01
-5.098789426088216281e+00 4.816714009278661734e+01 1.341254781177857325e+01
-5.176426147153354584e+00 4.818288278368014943e+01 1.500222450383291672e+01
-5.135477712651788096e+00 4.819622682351245402e+01 1.497314447024807649e+01
-5.149785051898556176e+00 4.819982398817715108e+01 1.533087152167123079e+01
-5.057360954993267654e+00 4.821277391433542903e+01 1.194008316813054726e+01
-5.264509408019516279e+00 4.816218666279959137e+01 9.808728040126725389e+00
-5.186618570684080609e+00 4.824714308443915911e+01 1.216978543233758003e+01
-5.020053063287448936e+00 4.814796430873958144e+01 8.057099523384289697e+00
-5.149598132866231026e+00 4.819804342963587374e+01 1.512742984411651648e+01
-5.187572538441753700e+00 4.818165598590282173e+01 1.430870730498836174e+01
-4.979190122861538725e+00 4.825199234208178467e+01 5.651528534586935493e+00
-5.232221790983838439e+00 4.822005533371427788e+01 1.284631337216645797e+01
-5.125616900663297670e+00 4.819406648708964980e+01 1.540515905860044299e+01
-5.248817058661447099e+00 4.828336442741696999e+01 5.910123923461819473e+00
-5.127856643682264348e+00 4.821795750834800032e+01 1.459680934716095635e+01
-5.190512212161372929e+00 4.811218322639163603e+01 7.142416213347194009e+00
-5.256519896167539230e+00 4.822723176827739877e+01 1.094128737123523010e+01
-5.277802348145650413e+00 4.818126808188095112e+01 1.029572803866764374e+01
-5.312716812913167885e+00 4.825012347803045287e+01 6.394243199415939216e+00
-5.094237358299059437e+00 4.822246889402173053e+01 1.340100394770630565e+01
-4.976224148730671537e+00 4.822054163530192739e+01 7.357047856052866486e+00
-4.975168260466317882e+00 4.815418682252472138e+01 6.133549917193454881e+00
-5.224181137181266088e+00 4.814354487603239363e+01 9.823257725379793470e+00
-5.071980528708163405e+00 4.823919392117606009e+01 1.158869685624510026e+01
-5.108769577439053577e+00 4.821798042251604954e+01 1.438544198030611909e+01
-5.167019550865268762e+00 4.828960886393826257e+01 7.105810472698506963e+00
-5.144926278961736266e+00 4.819445120306788510e+01 1.525351861175968082e+01
-5.047490378135623956e+00 4.817699739860446329e+01 1.136658226684113160e+01
-5.028718475527985454e+00 4.826163116066587833e+01 7.131543504091824026e+00
-4.991455563178609722e+00 4.814113221277989396e+01 6.131205581889087597e+00
-5.193380916576500361e+00 4.828028921456161981e+01 7.641068470416964686e+00
-5.293094708574510143e+00 4.821465622122907035e+01 8.941311172846026167e+00
-5.154792159040676225e+00 4.816682281845992009e+01 1.357289482259368540e+01
-5.029214350340222239e+00 4.819410750862214599e+01 1.132807524902592178e+01
-5.288167249445072216e+00 4.823982839734981809e+01 8.749607919725693961e+00
-5.154460063393854874e+00 4.821897012664211957e+01 1.486482007045377607e+01
-5.057525613764116024e+00 4.817431318830949749e+01 1.153794708260527457e+01
-5.123669920902248265e+00 4.819306998175832746e+01 1.522480196941203623e+01
-5.072095529488384713e+00 4.816207432458557491e+01 1.132146902821838630e+01
-5.180667180294186380e+00 4.820084080568098273e+01 1.523758546115060319e+01
-5.191168837221271204e+00 4.813160750239713082e+01 9.193022520964897026e+00
-5.263993317287162022e+00 4.819190464586804268e+01 1.097493697740497787e+01
-5.087802100498315383e+00 4.819758684184741071e+01 1.368421474956867634e+01
-5.171868399947783246e+00 4.819834153071660410e+01 1.517145540446782270e+01
-5.084378048737082878e+00 4.814077040954100539e+01 9.742304567483076383e+00
-5.236901151749372652e+00 4.821369840560250708e+01 1.264278847582992427e+01
-5.239699036643060026e+00 4.812510099138793862e+01 7.753811537945847654e+00
-5.134862948954166839e+00 4.819185304547372084e+01 1.489058503077357898e+01
-5.160453790097469629e+00 4.820430333628151942e+01 1.556454204115348006e+01
-5.314145128445898258e+00 4.817462166322646766e+01 7.752677152504640290e+00
-5.099304858611786173e+00 4.824783541553230748e+01 1.157228823542606300e+01
-5.168044535799220185e+00 4.818951019123858970e+01 1.483741451611500750e+01
-5.195383260052540919e+00 4.822190178872535427e+01 1.362352454024265214e+01
-5.206949851587448386e+00 4.820869103470936068e+01 1.436405607420690345e+01
-5.012629366487900917e+00 4.820557296648629375e+01 9.621945897832095085e+00
-5.134289614389479617e+00 4.815660384739405941e+01 1.257627826358769774e+01
-5.060201089776147576e+00 4.812242621903559581e+01 6.991821550716238676e+00
-5.105661880655263829e+00 4.823074744740857511e+01 1.299362362257924985e+01
-5.028083520414591057e+00 4.827893620076145709e+01 5.561092689561382585e+00
-5.050609852990788795e+00 4.814012710358773717e+01 8.286343549163015965e+00
-5.226616309525867088e+00 4.824543820125354898e+01 1.065921475822869979e+01
-5.142256499717835716e+00 4.812269585073067901e+01 8.938635662685847194e+00
-5.200694194327025954e+00 4.810973549641271774e+01 6.813566465589227406e+00
-5.119448749404457821e+00 4.816721950821287379e+01 1.359928702805875211e+01
-4.994883978309120565e+00 4.820636322664191908e+01 8.582719673566474583e+00
-5.135316087769435711e+00 4.822882128812694447e+01 1.398353769386605450e+01
-5.136551304796236117e+00 4.820757399272708454e+01 1.526301884581565638e+01
-5.144796413578076155e+00 4.825048407550887219e+01 1.190777078301185199e+01
-5.038335217132424937e+00 4.821243804773413899e+01 1.143653461901210200e+01
-5.077630550939820964e+00 4.812968438797611981e+01 8.962714971632937733e+00
-4.994538859138430098e+00 4.818739264186943672e+01 8.268836591707271921e+00
-5.157042614186420515e+00 4.825185033835985848e+01 1.196954266334682693e+01
-5.259039250902687535e+00 4.827136239782356597e+01 7.618777284395473970e+00
-5.059230856564491674e+00 4.820279981816264581e+01 1.228316806211581280e+01
-5.167084753268224695e+00 4.820703318508036972e+01 1.554479677304267682e+01
-5.314754501577969137e+00 4.821381768777012411e+01 8.254532998425245793e+00
-5.147716036464071721e+00 4.820418587873236049e+01 1.548884157577482767e+01
-5.285039314496761342e+00 4.825887861376184418e+01 7.102676348653090166e+00
-5.091690579210574441e+00 4.828480274458161148e+01 7.680540034286663875e+00
-5.141957540501994828e+00 4.823381043734107720e+01 1.401580632133084414e+01
-4.989286246611168707e+00 4.814681376975208593e+01 6.158359063591125171e+00
-5.196133240601713332e+00 4.816921403983033656e+01 1.354694056497146804e+01
-5.128471068089484497e+00 4.819610767118032868e+01 1.495750085738237622e+01
-5.151998103309360921e+00 4.820237935248817962e+01 1.532730849636702430e+01
-5.181213463871332081e+00 4.819105581688057782e+01 1.546617022748639414e+01
-5.152440320246554073e+00 4.819582853659765220e+01 1.533020247531733915e+01
-5.252428843879301645e+00 4.813891628815895984e+01 8.265950794715202221e+00
-5.116042066966119961e+00 4.815100952076784324e+01 1.177201208163830337e+01
-5.106213652316082374e+00 4.811979703760795246e+01 7.894740612637777488e+00
-5.045293155701669363e+00 4.813077497200612953e+01 7.311627562977557560e+00
-5.123952269202228571e+00 4.824894919252153613e+01 1.176703332426972892e+01
-5.239192117013026007e+00 4.811402404376074315e+01 5.957346372636941112e+00
-4.978840983893628724e+00 4.819426110590372758e+01 7.747324229913740368e+00
-5.065351007112141701e+00 4.823478228366734299e+01 1.199641546279378268e+01
-5.114347773139465758e+00 4.826837132798524976e+01 9.374335824057345334e+00
-5.084830080847385858e+00 4.822035340829768302e+01 1.352222609683263777e+01
-5.108703866300296603e+00 4.815940725329686956e+01 1.293660724677102003e+01
-5.164594033025106334e+00 4.820147931788909546e+01 1.522489948722307318e+01
-5.292769751725605154e+00 4.822237758691060350e+01 8.930608255105607185e+00
-5.264140670751583428e+00 4.818047243591610140e+01 1.133068780591433544e+01
-5.314147991683976002e+00 4.822718971750454386e+01 7.990839411766741840e+00
-5.296700346284279881e+00 4.822732943392020388e+01 9.059866431529439268e+00
-5.139429560495774929e+00 4.820393243800117489e+01 1.505837388857899484e+01
-5.092991812829748000e+00 4.819521851213912100e+01 1.444023122426001571e+01
-5.052449864453663508e+00 4.821180823787398140e+01 1.203331114431549587e+01
-5.139420642297807262e+00 4.821670528923243637e+01 1.548602693760539850e+01
-5.046543274356496411e+00 4.825427248574099082e+01 9.418475002734066237e+00
-5.297370599112858791e+00 4.821652205993503770e+01 8.944142680037343140e+00
-5.144829455476588542e+00 4.817066358027924622e+01 1.398345404167639572e+01
-5.253551576662395917e+00 4.822792839348724669e+01 1.114042169900586998e+01
-5.098394878783804707e+00 4.828982450543458071e+01 6.962624996259445531e+00
-5.152927350270087636e+00 4.820161630391558560e+01 1.508790811675024557e+01
-5.198418152166478734e+00 4.820160569117204830e+01 1.506678070878475673e+01
-5.159717764670200602e+00 4.825271517831300372e+01 1.188551246057416932e+01
-5.181206310999211695e+00 4.827984897069026005e+01 8.039601025206252416e+00
-5.148146189183520960e+00 4.819739904535531849e+01 1.514744949350277281e+01
-5.050909567939395828e+00 4.825298760520372809e+01 9.500969760093791905e+00
-5.260695229670172779e+00 4.815689180400588754e+01 9.292312549590175053e+00
-5.075071261932802891e+00 4.821051299605702667e+01 1.350531486136254600e+01
-4.998212801694279506e+00 4.813954132470887970e+01 6.564942129799439030e+00
-5.018430541143839463e+00 4.820321690368402301e+01 1.048233896962515743e+01
-5.090291286253694203e+00 4.819577624087636281e+01 1.442198279123521054e+01
-5.227896882275013368e+00 4.820705747353333948e+01 1.338585510033384374e+01
-5.062185959598013874e+00 4.811535840775759709e+01 6.671906612339360443e+00
-5.005997699635877929e+00 4.819229654491887516e+01 9.327519410853847504e+00
-5.318840140886877066e+00 4.820820607194244900e+01 7.536580193102276226e+00
-5.177071341236276325e+00 4.828193047008949890e+01 8.338054545716314436e+00
-5.125421566482789792e+00 4.815960615415722401e+01 1.323419633395787898e+01
-5.154172928759658490e+00 4.815420989771529747e+01 1.263626992130649462e+01
-5.101200635701998998e+00 4.816846023668684751e+01 1.379450468565529775e+01
-5.092207894972359483e+00 4.820830632313345632e+01 1.386013442560241771e+01
-4.997148885253052342e+00 4.820246241639414819e+01 8.524504961190238816e+00
-5.226712451368194401e+00 4.817695422892307278e+01 1.249277962722281998e+01
-5.225357926204713621e+00 4.826480005768295456e+01 8.846098470837951311e+00
-5.153106439149333973e+00 4.821189185852623638e+01 1.489237567731835910e+01
-5.022123682699514369e+00 4.816881341869125066e+01 9.974536437690138868e+00
-5.188182076999003023e+00 4.815793877935267631e+01 1.306764478816589126e+01
-5.294734541225485813e+00 4.822481231515491373e+01 9.302471122729306430e+00
-5.089522979759003363e+00 4.817022691931904177e+01 1.300711718004718342e+01
-5.121186959791767634e+00 4.820654300612974197e+01 1.550321933714809042e+01
-5.145169807707545395e+00 4.822826884340486231e+01 1.461247611486466980e+01
-5.176423619685735389e+00 4.820834250176945801e+01 1.472624866751809058e+01
-5.191997520092342278e+00 4.811212472952767882e+01 6.806718423005167828e+00
-5.164251864933936176e+00 4.823844741266485414e+01 1.385515323115692610e+01
-5.302055543021388928e+00 4.820422507635285569e+01 8.943010707800739922e+00
-5.153667889278829684e+00 4.820221091652327061e+01 1.522383454443450645e+01
-4.982797880693309978e+00 4.824352507602561957e+01 6.623474822719384925e+00
-5.114812442807063597e+00 4.822666601248084817e+01 1.371445131703823783e+01
-5.291388788148749356e+00 4.822813871976943290e+01 9.119938740243561881e+00
-5.223529057762335448e+00 4.822509876651561456e+01 1.263429981573749217e+01
-5.117717765713654110e+00 4.811625481705652874e+01 7.549062437335645193e+00
-5.276704468599422881e+00 4.823637699334447859e+01 8.919896853820715066e+00
-5.167215565934551336e+00 4.810864739765039388e+01 6.826732075128169264e+00
-5.177513429663114231e+00 4.818432403431755517e+01 1.516093784915567788e+01
-5.334839569599769682e+00 4.818435244612078350e+01 7.115420319054241993e+00
-5.013838399768758336e+00 4.826189102030171796e+01 6.866667012852291307e+00
-5.027277009652104667e+00 4.822800386324185240e+01 1.049809215919494854e+01
-5.221544310995472671e+00 4.824249632451537195e+01 1.162352124546657350e+01
-5.341563167003292811e+00 4.818716184967533422e+01 6.185250165154130286e+00
-5.029365994713684174e+00 4.816532985478848161e+01 1.014574882692208391e+01
-5.290115362970770896e+00 4.817462787871768626e+01 8.753675618803141489e+00
-5.163512467087392643e+00 4.816245574975845756e+01 1.371879255065809922e+01
-5.142154664514619000e+00 4.822324173627697519e+01 1.456993849792664619e+01
-5.001735187840390395e+00 4.826709261762572822e+01 5.956106962977496977e+00
-5.147176159784693894e+00 4.817407677577086389e+01 1.448485873123951961e+01
-5.170898884435274567e+00 4.820818503008008094e+01 1.486502984441647435e+01
-5.135712675135946093e+00 4.820431379887426715e+01 1.533967713133866617e+01
-5.165610045864296396e+00 4.821106264386493478e+01 1.528421804338784362e+01
-5.155142903054947823e+00 4.819470363615842246e+01 1.547803674245730754e+01
-5.070267811373669886e+00 4.812577517706994001e+01 8.091045128431215261e+00
-5.310953446483244633e+00 4.824120358309111367e+01 6.746136970890399098e+00
-5.114609868459742970e+00 4.817921060231010699e+01 1.401553854342460781e+01
-5.205423305471867934e+00 4.812378765918405321e+01 8.440921663265507746e+00
-5.198242558412399461e+00 4.815884747225590701e+01 1.207448992607005955e+01
-5.175959615354763343e+00 4.814322466598542860e+01 1.121882577131512626e+01
-5.225611965625442501e+00 4.820341348355447764e+01 1.306464649223414831e+01
-5.159195495569973922e+00 4.814147182996157426e+01 1.134869195617735116e+01
-5.162014394711419207e+00 4.812604327120480008e+01 9.241197083751348629e+00
-5.163078920813939376e+00 4.818135630398436575e+01 1.526442842633858277e+01
-5.143071046986614547e+00 4.815039054090711090e+01 1.216327917706388284e+01
-5.156124803593367112e+00 4.819526109399008362e+01 1.516440677866854436e+01
-5.305385545947567394e+00 4.818223243906309960e+01 8.552013894522465520e+00
-5.259383073029111344e+00 4.814397996169915928e+01 8.455066446234466682e+00
-5.000551025535862060e+00 4.825587595395083440e+01 6.418814749682450582e+00
-5.286410255111044343e+00 4.821063826010856701e+01 9.394849183073500143e+00
-5.163010089300493100e+00 4.812774146757039517e+01 9.577083789113608248e+00
-5.162797074656666929e+00 4.820797377111566817e+01 1.490872616505525627e+01
-5.312503299947692881e+00 4.818723660542782028e+01 8.600476942686480442e+00
-5.149145203502573764e+00 4.819977955921348212e+01 1.582721946618466546e+01
-4.983053011001405075e+00 4.822924225263409426e+01 7.045003750878517046e+00
-5.188226771690125361e+00 4.820350268476369138e+01 1.458796860095063330e+01
-5.107160702386195794e+00 4.823724243872179329e+01 1.304704428330907184e+01
-5.160617177878230599e+00 4.827447992190140269e+01 9.354811750014983218e+00
-5.194388978407971535e+00 4.814765528890394108e+01 1.174392755331380833e+01
-5.214130283711375213e+00 4.821442947528223755e+01 1.371903687365093205e+01
-5.113797487957457477e+00 4.820530254232492240e+01 1.502820757711977961e+01
-5.221108407590606681e+00 4.825859401869325893e+01 9.865891015441659917e+00
-5.063025567380290859e+00 4.825848866164924544e+01 9.239885659327576661e+00
-5.148858256925039178e+00 4.818828554053809654e+01 1.558424878430005833e+01
-5.159136617800042401e+00 4.819425370618253623e+01 1.551922136656341067e+01
-5.213930520117556533e+00 4.821077922948247618e+01 1.388379576399020543e+01
-5.253913127728422339e+00 4.824762993900483821e+01 9.357628332744305055e+00
-5.227487755961766069e+00 4.812264326472325138e+01 7.368649971700427237e+00
-5.289961196693625745e+00 4.826538875525273653e+01 6.135528545374350884e+00
-5.215817046168708337e+00 4.820317367265874964e+01 1.391851767375328031e+01
-5.135895302188141720e+00 4.819291189711894674e+01 1.507026532923318740e+01
-5.137277710600391956e+00 4.821587507473745404e+01 1.545485415674666108e+01
-5.127316403531455791e+00 4.820994355606134718e+01 1.566117013623473042e+01
-5.204281582773830905e+00 4.824857480410434363e+01 1.185501919787966330e+01
-5.318806869072745691e+00 4.817673246359665029e+01 7.911104109706550425e+00
-5.126514260615107510e+00 4.818443197051079352e+01 1.522426111095495926e+01
-5.202606660479370149e+00 4.812963682082293815e+01 8.532722695611816732e+00
-5.151722460222780242e+00 4.821018766361491714e+01 1.518915196199566431e+01
-5.059206306119993890e+00 4.820548075704260782e+01 1.296089665556291060e+01
-5.000010167321341292e+00 4.825152052829781013e+01 7.230462675212004697e+00
-5.138129755390205666e+00 4.820735393553444226e+01 1.487257789816874620e+01
-5.142593458488274649e+00 4.827971088432618529e+01 7.985876289338643907e+00
-5.345794949757729952e+00 4.819340572230189679e+01 6.537503842568566093e+00
-5.162643265385225888e+00 4.818399026945254349e+01 1.488250670006417309e+01
-5.175556327695923997e+00 4.812014983485865827e+01 8.081375423829175730e+00
-5.149813436086216889e+00 4.828426354647069729e+01 8.101584096764847587e+00
-5.112677597143983732e+00 4.825121536047276294e+01 1.211760801312498437e+01
-5.156685859792017546e+00 4.819982698856988890e+01 1.540599976178878983e+01
-5.088397738080886690e+00 4.823363298121142151e+01 1.308777601153232339e+01
-5.001505379379254990e+00 4.814725547960704688e+01 6.609263609493363667e+00
-5.285254644860883921e+00 4.814429187372883234e+01 7.345687097870577276e+00
-5.235678542026443338e+00 4.823924241776448696e+01 1.074506151929453956e+01
-5.159020951280551159e+00 4.821241615558160731e+01 1.486516119072661724e+01
-5.024158222778966731e+00 4.821331965732625946e+01 1.014029166483474498e+01
-5.056654253829959700e+00 4.824966974193347369e+01 1.040320160969637797e+01
-5.266484682704766662e+00 4.821507326609054900e+01 1.113099329706507845e+01
-5.177887482481671633e+00 4.822537672673151121e+01 1.401093694709802584e+01
-5.188308044656638529e+00 4.813753541436289396e+01 9.966330022863893134e+00
-5.271032020102761173e+00 4.823199765148719820e+01 9.389722065830511610e+00
-5.156286737666657238e+00 4.819951834223545006e+01 1.572076385886293970e+01
-5.034798020553658660e+00 4.820920113392629958e+01 1.140206141681980512e+01
-5.157708310242113292e+00 4.819979272228849965e+01 1.539868849517235994e+01
-5.013758367270263250e+00 4.814618586990567195e+01 7.551764821701186570e+00
-5.182511395092227247e+00 4.820769992817096039e+01 1.526517043609747759e+01
-5.241350242914885271e+00 4.827104294078738178e+01 8.016308269411172915e+00
-5.304436965373530377e+00 4.816567200020502781e+01 7.365193307040364346e+00
-5.076125989692011231e+00 4.817797512813248062e+01 1.255420126816402870e+01
-5.232504972577252111e+00 4.826792834340704985e+01 8.859353636568647161e+00
-5.050260751547387628e+00 4.820787140053725039e+01 1.165955926491890082e+01
-5.125829163985729409e+00 4.826094181189195353e+01 1.028299557326750246e+01
-5.078578483868019688e+00 4.819517168647281835e+01 1.321721038536423265e+01
-5.291552455818784750e+00 4.813030028478748790e+01 5.840974467918697677e+00
-5.104584599865137129e+00 4.828709952461517219e+01 6.801927659024654460e+00
-5.092962264631573532e+00 4.818889414839468088e+01 1.419561872868475305e+01
-5.305127644206932835e+00 4.814253970818590744e+01 6.676124967471865013e+00
-4.973391885182935290e+00 4.824688410838230368e+01 5.754213567593211565e+00
-5.045769571122148633e+00 4.820184234571036086e+01 1.171443647853774372e+01
-5.238319235306821753e+00 4.821640994080134845e+01 1.254286897891176977e+01
-5.193527113954260699e+00 4.820183569673465485e+01 1.499019868280839418e+01
-5.161738028883275931e+00 4.818647032205524994e+01 1.558161404094868807e+01
-5.295976473700338971e+00 4.826123913345733030e+01 7.016149036216362767e+00
-5.076495217235303059e+00 4.820528460032087992e+01 1.403169889578781415e+01
-5.085551255034594043e+00 4.827587190264599570e+01 7.983672486155883874e+00
-5.177048310348222770e+00 4.810621897421169990e+01 6.269141580483466925e+00
-5.148778540572514828e+00 4.819306023918253601e+01 1.585057978142905277e+01
-5.131650817746632676e+00 4.820806070392956855e+01 1.509276170022819308e+01
-5.130153599459998937e+00 4.821170052710792220e+01 1.497442079449014507e+01
-5.158203558141730483e+00 4.819067222199054612e+01 1.515772393497809034e+01
-5.116268323498275095e+00 4.825831181046621765e+01 1.057553632457138626e+01
-5.274045787545317943e+00 4.819376673151067791e+01 1.096041246681138759e+01
-5.081618258225678808e+00 4.821489784954921731e+01 1.356299021088511125e+01
-5.304819676970629949e+00 4.820933611407694031e+01 8.237117044169286473e+00
-5.100452541365297243e+00 4.816623266844310081e+01 1.268178409713681454e+01
