-5.230312109119673813e+00 4.819099842458974337e+01 2.772172134049667491e+01
-5.064135956066870392e+00 4.826812622354646720e+01 2.451109343789650907e+01
-5.031527050109116495e+00 4.825113132277699890e+01 2.679337306378057448e+01
-5.230981274703074391e+00 4.826313736240774688e+01 2.261854676716454549e+01
-5.232657665232854249e+00 4.822691850721091100e+01 2.661210618112226456e+01
-4.997290314360729901e+00 4.814316817850806274e+01 2.485128404825983495e+01
-5.243023274812331991e+00 4.828232160608406787e+01 2.010900630465457795e+01
-4.861594982881501714e+00 4.813851713870084836e+01 1.813982329640040803e+01
-5.216041472872556817e+00 4.816913637250717528e+01 2.717146314562174325e+01
-5.299192495470181008e+00 4.817483424949902115e+01 2.340448136869101603e+01
-4.927930616122371710e+00 4.812301328766388764e+01 1.992942149659882745e+01
-4.942652435635943142e+00 4.823565524084286693e+01 2.470977271446464840e+01
-5.121042590748628776e+00 4.826282452221379771e+01 2.512938476726932180e+01
-5.275605106072167594e+00 4.815276544011648241e+01 2.290365917494097303e+01
-4.922492567997830193e+00 4.823076817199886790e+01 2.374307177470194219e+01
-4.911681001359495369e+00 4.821580129429145245e+01 2.445061193731263671e+01
-4.896705880644072195e+00 4.815212498227439397e+01 2.172011516675163278e+01
-5.117975318273666474e+00 4.830334343721427359e+01 1.959077840628707179e+01
-4.964969614849146673e+00 4.818332483641175656e+01 2.680400981653838244e+01
-5.101708990889703976e+00 4.826332250239451582e+01 2.584529275321654751e+01
-5.217409577287019928e+00 4.823167378264111704e+01 2.696267055746643138e+01
-5.272226555236294132e+00 4.821091523114942134e+01 2.526724552716432726e+01
-5.259916268436033882e+00 4.815313992590734671e+01 2.382288230880420699e+01
-4.935919232374521570e+00 4.819209276044838930e+01 2.545965940231085511e+01
-5.204114730759019203e+00 4.829877676601893199e+01 1.861131704061741488e+01
-5.146907937885003115e+00 4.828112377943575240e+01 2.229573806142523296e+01
-5.207181758570948560e+00 4.832108921423628800e+01 1.539962927421838579e+01
-5.236728492053887685e+00 4.824199805641148231e+01 2.529072268253402100e+01
-4.961337352963392178e+00 4.817168813058626142e+01 2.620048181579845448e+01
-4.853222622508616801e+00 4.816178346556127821e+01 1.982209735494049951e+01
-5.049122395530144303e+00 4.832422247023988859e+01 1.530288983150373205e+01
-4.967207180539871203e+00 4.825416867394341836e+01 2.448689517798257853e+01
-4.919699479976888057e+00 4.825894808466001962e+01 2.151192491583832123e+01
-5.214124271171024283e+00 4.825946511839118358e+01 2.383539493806604526e+01
-5.027598054090372415e+00 4.833782915474527897e+01 1.267799265144642717e+01
-4.955882930093147287e+00 4.813146668913148574e+01 2.210445685917967751e+01
-5.262566748882248291e+00 4.816473611845126612e+01 2.433444279932452048e+01
-5.220110847041914859e+00 4.821253287073025007e+01 2.731119440589705505e+01
-4.899377123257454336e+00 4.822273701573445237e+01 2.296909652168463722e+01
-4.964762918851393536e+00 4.821149492904134348e+01 2.729436138063403661e+01
-5.202653703419755082e+00 4.815590779457034643e+01 2.658659284616467033e+01
-4.996183297716549454e+00 4.828279537542406530e+01 2.137746477760559216e+01
-4.902901405985566008e+00 4.814390303182520370e+01 2.046935272015943852e+01
-4.936187232718288520e+00 4.814838493382725204e+01 2.295355144441607109e+01
-4.995290316016926191e+00 4.819761725063013102e+01 2.807104780497610363e+01
-5.237055852128183808e+00 4.812819288135405316e+01 2.168857016284145800e+01
-4.968021738814088373e+00 4.813729075501765919e+01 2.283936733925251517e+01
-5.215427024635680198e+00 4.819811670886338106e+01 2.769743338958488721e+01
-5.010992027330166465e+00 4.829392513589237979e+01 1.932578243154947373e+01
-5.386844851300413239e+00 4.810711025328774326e+01 1.222515043489867637e+01
-4.919291285838203187e+00 4.810886351018827156e+01 1.705849094313849790e+01
-4.870466845697523972e+00 4.810384755696730963e+01 1.458916106883597053e+01
-5.214119778968465901e+00 4.818181891301270525e+01 2.731376968398362948e+01
-5.045469997226608605e+00 4.828773337194765958e+01 2.125084701215328309e+01
-5.009943314798890768e+00 4.830388341325266310e+01 1.814106909093381859e+01
-4.983246028004897354e+00 4.819543225563339917e+01 2.758541654740715998e+01
-4.973301527729729443e+00 4.817120847813153972e+01 2.646091235265872754e+01
-5.009336388067699097e+00 4.832905048625322308e+01 1.433224496031603223e+01
-5.342696560647840265e+00 4.812360557462670840e+01 1.670514740750978788e+01
-5.188797671568505798e+00 4.825050145994667616e+01 2.581678497846539599e+01
-4.928679107470312459e+00 4.824600315114524562e+01 2.331156722593634711e+01
-5.336420445774527899e+00 4.814340545020041162e+01 1.835978425526290181e+01
-4.924146210675235835e+00 4.820243732745844056e+01 2.488436134945716915e+01
-5.136314540361596848e+00 4.826597535101481640e+01 2.507229422915019157e+01
-4.943383528891933665e+00 4.818177262246794612e+01 2.586296381073531236e+01
-5.300659844092407980e+00 4.822677986294932850e+01 2.317114236603780952e+01
-5.011379542785373786e+00 4.825209658123308998e+01 2.547039115181231850e+01
-5.267443688667199808e+00 4.814469457318960366e+01 2.224229507658521499e+01
-4.966998446158037872e+00 4.819867618478579629e+01 2.756442954604332130e+01
-5.320863324652736814e+00 4.815435919027134304e+01 2.080277239777286979e+01
-5.229492220938861458e+00 4.816311254304816458e+01 2.615240339220588339e+01
-5.265580622625243734e+00 4.826359991956169182e+01 2.181753447378228472e+01
-4.990766764285184287e+00 4.813194412879292372e+01 2.351274543431820518e+01
-5.269223046499956098e+00 4.813066413995944259e+01 2.109934497901432948e+01
-4.850043626698393950e+00 4.810665353532923660e+01 1.423095473906284880e+01
-4.929427732418634633e+00 4.822202562045887930e+01 2.482248015519321527e+01
-5.075618584295490621e+00 4.833695550380978290e+01 1.351805364362671291e+01
-5.048823168208054213e+00 4.830686799760330530e+01 1.829344478543194086e+01
-5.173785027276903037e+00 4.828442307479127749e+01 2.185551276470010862e+01
-5.092110618312403858e+00 4.833209370736532406e+01 1.397179980948946643e+01
-5.063807818289746798e+00 4.825680973947348917e+01 2.599284281072285907e+01
-4.960059461467655417e+00 4.816143422614651115e+01 2.535663802361563413e+01
-5.232934714807701226e+00 4.828834276170336182e+01 1.944612757423639948e+01
-5.025091146481830862e+00 4.826063124355026446e+01 2.499263955040211016e+01
-5.228655045660770107e+00 4.832050113409942327e+01 1.444543663152663626e+01
-5.283972633208249725e+00 4.824082596026894265e+01 2.326813485979702989e+01
-5.365031098127179376e+00 4.812279315244578015e+01 1.508688575622528028e+01
-5.320648989197961143e+00 4.819616664107859805e+01 2.291681144481408694e+01
-4.867654131232450609e+00 4.818264650280197259e+01 2.178548596622989919e+01
-5.231653835451487211e+00 4.821478005426452995e+01 2.697202071969472215e+01
-5.159467638561622493e+00 4.833438069798638281e+01 1.403127594758560903e+01
-5.020128276853315974e+00 4.830955526071887363e+01 1.766576213765865333e+01
-5.070299082642607758e+00 4.828746022657489334e+01 2.212097761231552440e+01
-5.190777744835682661e+00 4.832903424982707463e+01 1.454225735646948792e+01
-5.255065991882528209e+00 4.818673293385605660e+01 2.569790557409799092e+01
-5.225190094277665231e+00 4.810775823843853516e+01 1.948235102959806042e+01
-4.905124048382950797e+00 4.823728681028548237e+01 2.324215003150048631e+01
-5.200349278799187402e+00 4.823514868208781081e+01 2.762627858598687780e+01
-5.045316693826027432e+00 4.825902084358818200e+01 2.528331427247223928e+01
-4.949011548092514978e+00 4.827085656053343854e+01 2.159602439009538344e+01
-4.995291284863915493e+00 4.824734562825786810e+01 2.544518631338500469e+01
-4.884753941172088609e+00 4.815646091973179210e+01 2.146341209222892488e+01
-5.283403556519919775e+00 4.820013699017050612e+01 2.506312046897676638e+01
-4.883668391015222099e+00 4.810518996187538932e+01 1.527084230898482886e+01
-4.934244454634312049e+00 4.813260445701692447e+01 2.112452076873195494e+01
-5.116674732040166873e+00 4.825171743781454836e+01 2.752722876217843506e+01
-5.057930326772549279e+00 4.828253683200374979e+01 2.254629462565705111e+01
-4.851168095961558180e+00 4.814044053702694725e+01 1.763723383358791708e+01
-4.985136348763927749e+00 4.825702912518622867e+01 2.476873639025056306e+01
-5.299466378892701002e+00 4.818559091688771190e+01 2.340789299311670746e+01
-4.898763836160298979e+00 4.811357619910776862e+01 1.691600565764081665e+01
-4.878883017018471158e+00 4.816717027321902833e+01 2.180689427933367597e+01
-5.257773555882130800e+00 4.827470592976915498e+01 2.017767455186752557e+01
-4.957078982939177259e+00 4.811212142737963404e+01 1.936106989664451561e+01
-4.982304326375574632e+00 4.815844889189043698e+01 2.580689680502556627e+01
-5.337039461207023550e+00 4.810178696594365277e+01 1.439359503304175902e+01
-5.349191909568238756e+00 4.815817619290609741e+01 1.954717310005869280e+01
-5.319909258937427055e+00 4.810279757725790972e+01 1.531095853959350350e+01
-5.300157141707027009e+00 4.811651325895878983e+01 1.801042581380306373e+01
-4.844623608973700257e+00 4.811715728680412951e+01 1.558331002896653317e+01
-5.081113025534373051e+00 4.826142685116586506e+01 2.582236970372602869e+01
-5.240658946693657505e+00 4.825444402080092487e+01 2.370437733557647775e+01
-5.244143252363142160e+00 4.830205988297824149e+01 1.752615077852323822e+01
-5.318629219249138451e+00 4.818337602419960319e+01 2.238172848230696843e+01
-4.899146933563080175e+00 4.818134485470127970e+01 2.309925117403872008e+01
-5.253661898220404858e+00 4.814148147255691157e+01 2.226931756317129540e+01
-5.068724177319072766e+00 4.829762230306732818e+01 1.992916612418320099e+01
-5.331901431034511418e+00 4.811600759671092931e+01 1.575197611058828073e+01
-5.259306899973243077e+00 4.824384907422437863e+01 2.395772275419989228e+01
-5.037463646075578616e+00 4.830548003897981602e+01 1.885072929421305687e+01
-5.089766390053916290e+00 4.834820853849444688e+01 1.151901598326815268e+01
-5.206022348943491806e+00 4.824377940589171487e+01 2.615042826977744994e+01
-4.838068056986365661e+00 4.810653337058882073e+01 1.416470302911709034e+01
-4.991339716103157187e+00 4.823540750992463444e+01 2.693681435379448885e+01
-5.192744086118032065e+00 4.830448631190937903e+01 1.767996115726143813e+01
-4.968192723662399501e+00 4.827848752558990952e+01 2.113646350905840876e+01
-4.957055569832189867e+00 4.828533501235877878e+01 1.932083915303820021e+01
-4.992109366679145843e+00 4.821630450317698546e+01 2.845793643873595258e+01
-5.066530809861498064e+00 4.834778513273418099e+01 1.171583962879642016e+01
-5.201675697980447488e+00 4.810162870426021442e+01 1.870991016077917735e+01
-5.322728610037240848e+00 4.813918306044433848e+01 1.933455759830200904e+01
-4.950464194451289046e+00 4.821962196209204876e+01 2.577132750974728026e+01
-5.155538548270998334e+00 4.825921419082464325e+01 2.564739252521722790e+01
-5.164239361789705995e+00 4.826425177325259597e+01 2.464642475995649562e+01
-5.134081192951065908e+00 4.830267939656998522e+01 1.913782569801910327e+01
-5.128504724312151986e+00 4.828254833943547197e+01 2.210838464596875141e+01
-5.230934102092216875e+00 4.813823213629823528e+01 2.321121236960581768e+01
-5.237765744658433142e+00 4.815482191879120677e+01 2.476029508009316160e+01
-4.878541901392239311e+00 4.813767237600927729e+01 1.938980751066302943e+01
-4.821261193755988828e+00 4.810825268405775290e+01 1.293850301782255130e+01
-4.947560884557311134e+00 4.819586481563325719e+01 2.634485118431665995e+01
-5.179908025750555645e+00 4.833493221215869795e+01 1.314558797881468699e+01
-5.286002687488569052e+00 4.811856673460717104e+01 1.863076765734653861e+01
-5.158824298075058934e+00 4.827743507136926127e+01 2.268930498646637162e+01
-5.252872395224598812e+00 4.820576784783602164e+01 2.638928399263048874e+01
-5.293027855726812447e+00 4.810392883099783745e+01 1.675491970787224361e+01
-4.899057989528063040e+00 4.816568194892902000e+01 2.303284380687269461e+01
-5.315694669764458702e+00 4.817131332454182768e+01 2.260080558709563547e+01
-5.091596162576927043e+00 4.827565200380214350e+01 2.401164939458000447e+01
-5.251369504253169396e+00 4.829254477504034071e+01 1.843440876873665601e+01
-4.870085638286568930e+00 4.812577709497847422e+01 1.717938489473333519e+01
-5.267863948901704063e+00 4.818657781120653283e+01 2.499981251673527183e+01
-4.981263504900823591e+00 4.824578013222456718e+01 2.595667573502139902e+01
-4.887750803574269831e+00 4.817941476204161688e+01 2.255645435898781059e+01
-5.275104068764639109e+00 4.817656742863329811e+01 2.454215871608819910e+01
-5.283872867438873300e+00 4.822472003448559263e+01 2.376028906692922860e+01
-4.937342099835488440e+00 4.828254199480308273e+01 1.903155831492778205e+01
-5.084938744256165322e+00 4.828741881794361035e+01 2.199892649390386978e+01
-5.028289133864985772e+00 4.832267306142107088e+01 1.527133231143131731e+01
-4.984967988171320918e+00 4.817826696514964624e+01 2.757952151414533049e+01
-5.214378177094619815e+00 4.815435461132909012e+01 2.557373221911732131e+01
-5.138308994573448807e+00 4.832423067979995324e+01 1.521242259982418688e+01
-5.216758760969790742e+00 4.832822702681283289e+01 1.367574169105521342e+01
-4.988007736673108816e+00 4.834220312998130709e+01 1.184654715904847677e+01
-5.112676307420596977e+00 4.828382575907613017e+01 2.221202893076297613e+01
-4.829699625095443594e+00 4.812464720766410409e+01 1.568518047001338722e+01
-5.232948187317815858e+00 4.829954184478201284e+01 1.807014404599956947e+01
-4.973546723891444366e+00 4.823517647609601511e+01 2.589820218362146775e+01
-5.339689347565665933e+00 4.815444621788542179e+01 1.946732612303311427e+01
