-5.217409577287019928e+00 4.823167378264111704e+01 2.696267055746643138e+01
-5.011638481012170132e+00 4.821050191332694368e+01 2.904150520796501667e+01
-5.039651796295260056e+00 4.818383399592543981e+01 2.978288957148761895e+01
-5.068051046962099626e+00 4.827378222533166507e+01 2.421311340128961120e+01
-4.790318362545365360e+00 4.817397921297563101e+01 1.609059097158541007e+01
-5.272226555236294132e+00 4.821091523114942134e+01 2.526724552716432726e+01
-5.259916268436033882e+00 4.815313992590734671e+01 2.382288230880420699e+01
-5.095060735858668366e+00 4.816770552158503449e+01 2.867133114297448415e+01
-5.112014037634931896e+00 4.819659084381437708e+01 3.053385870816343228e+01
-5.105146801779688381e+00 4.819469571931275453e+01 3.084442610991828460e+01
-5.433065221776517184e+00 4.820949479390966275e+01 1.497560400409221693e+01
-5.179166416316331123e+00 4.806571942178389634e+01 1.373806528854443698e+01
-5.159171939291876896e+00 4.823052586888076831e+01 2.898104303261390058e+01
-5.210072372062794166e+00 4.823203305248753736e+01 2.727879866775418449e+01
-5.075375359564431754e+00 4.821875586032774663e+01 2.946851947255971638e+01
-5.469686552954374115e+00 4.822161680518942717e+01 1.280622123686091918e+01
-5.023290433635374086e+00 4.817890160472386185e+01 2.854265086838663734e+01
-4.810043432942031849e+00 4.812636236728525319e+01 1.459250827611346857e+01
-5.087419913448233189e+00 4.813686298633025729e+01 2.552372135948765930e+01
-4.935919232374521570e+00 4.819209276044838930e+01 2.545965940231085511e+01
-4.731324990818552401e+00 4.816331736728393054e+01 1.253041218137515322e+01
-5.204114730759019203e+00 4.829877676601893199e+01 1.861131704061741488e+01
-5.291485190438366182e+00 4.832304440793711819e+01 1.237786918564468586e+01
-5.339641812750186567e+00 4.829217559060566600e+01 1.452051349188530693e+01
-5.061157993738307326e+00 4.812825153865922090e+01 2.382099185588499424e+01
-5.134413432341895955e+00 4.818839659470663861e+01 3.055231873556920519e+01
-5.195125375506520093e+00 4.813227899448865088e+01 2.395310947199400786e+01
-5.146907937885003115e+00 4.828112377943575240e+01 2.229573806142523296e+01
-5.282559264890660522e+00 4.826478065172467780e+01 2.085421134968388301e+01
-5.247660739302871136e+00 4.828658786423129357e+01 1.903612643841861640e+01
-5.401801221703097511e+00 4.823302998600336622e+01 1.625690968013546467e+01
-4.866918525288729924e+00 4.825165801620740069e+01 1.978964551568560282e+01
-4.829350979293638879e+00 4.826840803693186643e+01 1.609517420592350589e+01
-5.071749190881293501e+00 4.820360395591156077e+01 3.003801475422306666e+01
-5.207181758570948560e+00 4.832108921423628800e+01 1.539962927421838579e+01
-5.336594879431897809e+00 4.831777092296729847e+01 1.151553947205811745e+01
-5.122927974385910410e+00 4.820711027748627941e+01 3.071552877850152896e+01
-4.936958007664682846e+00 4.812109622045700519e+01 1.936758506580679651e+01
-5.236728492053887685e+00 4.824199805641148231e+01 2.529072268253402100e+01
-5.101818740336227620e+00 4.820006306765591830e+01 3.065198671655779705e+01
-5.467309416217030815e+00 4.823759086658272821e+01 1.234737113754077242e+01
-5.061636450390963660e+00 4.821284730327847967e+01 2.952975032388840759e+01
-5.061162318911662794e+00 4.819500115651532468e+01 3.028428964150488056e+01
-4.961337352963392178e+00 4.817168813058626142e+01 2.620048181579845448e+01
-5.156564962576392297e+00 4.809529209008844930e+01 1.825581655285623128e+01
-5.045553844333427129e+00 4.811984372177879266e+01 2.307166692725546753e+01
-5.285997482213292464e+00 4.807664529185884561e+01 1.268736231497766376e+01
-4.853222622508616801e+00 4.816178346556127821e+01 1.982209735494049951e+01
-4.856132274847979602e+00 4.824283396981851979e+01 1.951910821591800982e+01
-5.061911280431957039e+00 4.820613666391962937e+01 3.033202806185244071e+01
-5.296857431116348103e+00 4.816936830969723360e+01 2.326823218624195633e+01
-5.348183120699646409e+00 4.823753130030336678e+01 1.939398542169152861e+01
-5.123735337464054851e+00 4.821464441947561141e+01 2.984020256190989073e+01
-5.049122395530144303e+00 4.832422247023988859e+01 1.530288983150373205e+01
-4.950302722751668050e+00 4.833322165387161817e+01 1.276439759163890741e+01
-5.059367850872456884e+00 4.808365309143428590e+01 1.633095245221186786e+01
-5.232394181543385869e+00 4.823586375166014761e+01 2.629869216037514335e+01
-4.967207180539871203e+00 4.825416867394341836e+01 2.448689517798257853e+01
-4.861608910245276860e+00 4.828941764056616393e+01 1.551147455154642252e+01
-5.207759472360648623e+00 4.830355308252038782e+01 1.757652549670176967e+01
-5.016604021691380311e+00 4.817329721057041780e+01 2.830603651737456872e+01
-4.919699479976888057e+00 4.825894808466001962e+01 2.151192491583832123e+01
-5.093538107766948819e+00 4.822942584013358669e+01 2.946774211833641388e+01
-4.960058235718035391e+00 4.816835952171626190e+01 2.608074573532741169e+01
-5.434705768961273442e+00 4.827401695903655821e+01 1.176935557389230880e+01
-5.214124271171024283e+00 4.825946511839118358e+01 2.383539493806604526e+01
-5.027598054090372415e+00 4.833782915474527897e+01 1.267799265144642717e+01
-5.366142012508410275e+00 4.825009640133958300e+01 1.760322149252629842e+01
-5.044069523734988181e+00 4.821763449571529492e+01 2.917027833239315626e+01
-5.125439418569539107e+00 4.824688692528582834e+01 2.772475359037705189e+01
-5.344234002927634286e+00 4.817448179023369903e+01 2.064302785010818653e+01
-4.955882930093147287e+00 4.813146668913148574e+01 2.210445685917967751e+01
-4.857889482431547279e+00 4.814675514439740311e+01 1.908315743801456676e+01
-5.027835102081636975e+00 4.824432263322221814e+01 2.690569711515476925e+01
-5.437294911265365016e+00 4.816781137710524519e+01 1.412267419311015182e+01
-5.089259206107875855e+00 4.823440172208102439e+01 2.873092594535696875e+01
-5.022907298200599335e+00 4.821271705050173750e+01 2.963353520550901266e+01
-5.262566748882248291e+00 4.816473611845126612e+01 2.433444279932452048e+01
-5.387764092907348257e+00 4.820885744303090092e+01 1.852087243981522846e+01
-5.220110847041914859e+00 4.821253287073025007e+01 2.731119440589705505e+01
-5.109795551183378137e+00 4.820833320734332261e+01 3.044810959803615447e+01
-5.111008300084982636e+00 4.823574816761990292e+01 2.851994874488588394e+01
-5.100693824145576372e+00 4.820608612203859167e+01 3.032416677926072524e+01
-4.899377123257454336e+00 4.822273701573445237e+01 2.296909652168463722e+01
-5.124855490394848445e+00 4.824109324350322225e+01 2.822697619270938674e+01
-5.145591126176263685e+00 4.820483028516193968e+01 3.034196521623010412e+01
-5.425543165604828744e+00 4.811541065398091632e+01 1.201998492946119512e+01
-5.241790575628838766e+00 4.822911468443468408e+01 2.565867864200939152e+01
-5.109053963175465896e+00 4.816868667781764657e+01 2.962820408863672128e+01
-4.964762918851393536e+00 4.821149492904134348e+01 2.729436138063403661e+01
-5.131567481360628236e+00 4.822178668843405092e+01 2.987848943844066341e+01
-4.927695141864104400e+00 4.813232696599883553e+01 2.089938641550915222e+01
-5.176774332635917908e+00 4.817025812731973389e+01 2.802544175502906398e+01
-5.431546538414558256e+00 4.813780782484310095e+01 1.270997256640582407e+01
-5.041235886600833993e+00 4.817795605189664343e+01 2.886998953725293404e+01
-5.202653703419755082e+00 4.815590779457034643e+01 2.658659284616467033e+01
-5.113426150299675399e+00 4.820344169191706385e+01 3.064219952531654556e+01
-4.996183297716549454e+00 4.828279537542406530e+01 2.137746477760559216e+01
-4.902901405985566008e+00 4.814390303182520370e+01 2.046935272015943852e+01
-4.936187232718288520e+00 4.814838493382725204e+01 2.295355144441607109e+01
-5.105976662031027402e+00 4.825868797210249284e+01 2.604397691943153959e+01
-5.455451746628044774e+00 4.826658721816791342e+01 1.186361573356011689e+01
-4.866053800975253196e+00 4.830852080772736912e+01 1.290228190409211706e+01
-4.982283871807425157e+00 4.806039331647455981e+01 1.229923368409830431e+01
-5.347976153798819077e+00 4.822762354234199478e+01 2.074441719007104723e+01
-5.178452998407140129e+00 4.820554424453359132e+01 2.905889882909078636e+01
-5.103839834470429437e+00 4.818855731816292831e+01 2.988714501104828969e+01
-4.995290316016926191e+00 4.819761725063013102e+01 2.807104780497610363e+01
-5.099085046199089533e+00 4.815062296232564165e+01 2.739776045473641730e+01
-4.753205826136492895e+00 4.820995477247441130e+01 1.450006024443017161e+01
-5.140277319483088192e+00 4.819917635954887203e+01 3.004201335750549973e+01
-5.130123217727694751e+00 4.821450713726957815e+01 2.993080787760585793e+01
-5.069929792438271576e+00 4.814673844880792331e+01 2.702853756681104613e+01
-5.048718245381901504e+00 4.822369926344905622e+01 2.879864952280931689e+01
-4.920117963261972704e+00 4.832316783692673567e+01 1.257077014067850307e+01
-5.237055852128183808e+00 4.812819288135405316e+01 2.168857016284145800e+01
-4.968021738814088373e+00 4.813729075501765919e+01 2.283936733925251517e+01
-5.215427024635680198e+00 4.819811670886338106e+01 2.769743338958488721e+01
-5.181272219039718685e+00 4.815553802352861368e+01 2.696433041784018414e+01
-5.071858987392049656e+00 4.813661428681632515e+01 2.510746974003854604e+01
-5.114738650322931512e+00 4.816898598561768097e+01 2.892320126507436839e+01
-5.126894644851338612e+00 4.815534732412886854e+01 2.778325514126005302e+01
-5.010992027330166465e+00 4.829392513589237979e+01 1.932578243154947373e+01
-5.085673625356220917e+00 4.816844161680873526e+01 2.925527771987980330e+01
-5.090053173199966530e+00 4.819884241341326003e+01 3.035699727880387400e+01
-5.377065074636547592e+00 4.825230910740248191e+01 1.729441518512683018e+01
-5.173788503605512012e+00 4.817643061078381805e+01 2.896238879149886714e+01
-5.436358442593481222e+00 4.812979054381640509e+01 1.196595653858231678e+01
-5.196431162262483916e+00 4.815634228842738906e+01 2.623771581761682370e+01
-4.915632601868666463e+00 4.809651213755770272e+01 1.602993237161636131e+01
-5.040618166325282701e+00 4.822873722876968827e+01 2.876153433001851667e+01
-5.040688505997891866e+00 4.821718923435840054e+01 2.974150648850108780e+01
-5.043389439906473370e+00 4.811025529507287501e+01 2.146325132009266667e+01
-5.050464384269136353e+00 4.820511884704912831e+01 2.974438036171685340e+01
-5.364161688133664008e+00 4.830990314813595887e+01 1.181417104697060694e+01
-5.386844851300413239e+00 4.810711025328774326e+01 1.222515043489867637e+01
-4.919291285838203187e+00 4.810886351018827156e+01 1.705849094313849790e+01
-4.982733363887981604e+00 4.808688274419535702e+01 1.612600469171611905e+01
-5.089501816854271610e+00 4.818499541284963072e+01 2.983270793696889456e+01
-4.816069742201857906e+00 4.818975278169722287e+01 1.857130946369780133e+01
-5.034662813074980647e+00 4.820961140059650774e+01 2.947642088308433728e+01
-5.070893422568443221e+00 4.817104460009468170e+01 2.902766378025422611e+01
-4.932375132340574453e+00 4.812814756344778999e+01 2.056315287963011329e+01
-5.169327611017959789e+00 4.818396104748993736e+01 2.909641445965882411e+01
-4.870466845697523972e+00 4.810384755696730963e+01 1.458916106883597053e+01
-5.126475835279266313e+00 4.819047629558446744e+01 3.066054681888426359e+01
-5.163566731327880355e+00 4.815028283256367558e+01 2.639930050698677988e+01
-5.214119778968465901e+00 4.818181891301270525e+01 2.731376968398362948e+01
-5.037674049597839598e+00 4.822273252068944061e+01 2.949275279422082008e+01
-4.749888609219956592e+00 4.824232609862833954e+01 1.329879026355246907e+01
-5.045469997226608605e+00 4.828773337194765958e+01 2.125084701215328309e+01
-5.009943314798890768e+00 4.830388341325266310e+01 1.814106909093381859e+01
-4.937153598729831394e+00 4.809445921263021972e+01 1.626391769206844629e+01
-4.983246028004897354e+00 4.819543225563339917e+01 2.758541654740715998e+01
-4.973301527729729443e+00 4.817120847813153972e+01 2.646091235265872754e+01
-5.361231588769118872e+00 4.822392096296929509e+01 1.946081332400084918e+01
-5.113628704370915656e+00 4.809640452122539500e+01 1.899652262538064917e+01
-5.009336388067699097e+00 4.832905048625322308e+01 1.433224496031603223e+01
-5.041182672299356682e+00 4.824797683221891731e+01 2.691323633225598400e+01
-5.342696560647840265e+00 4.812360557462670840e+01 1.670514740750978788e+01
-5.188797671568505798e+00 4.825050145994667616e+01 2.581678497846539599e+01
-4.928679107470312459e+00 4.824600315114524562e+01 2.331156722593634711e+01
-5.336420445774527899e+00 4.814340545020041162e+01 1.835978425526290181e+01
-4.924146210675235835e+00 4.820243732745844056e+01 2.488436134945716915e+01
-5.136314540361596848e+00 4.826597535101481640e+01 2.507229422915019157e+01
-5.096363080955303992e+00 4.820296598369171903e+01 3.057331061898567626e+01
-4.939418526068599213e+00 4.830519212807883633e+01 1.571171220017793679e+01
-4.943383528891933665e+00 4.818177262246794612e+01 2.586296381073531236e+01
-5.106256877116734039e+00 4.819220434244171969e+01 3.009133577530746706e+01
-5.300659844092407980e+00 4.822677986294932850e+01 2.317114236603780952e+01
-5.420228329688439928e+00 4.827974904609275342e+01 1.265408790970987063e+01
-5.011379542785373786e+00 4.825209658123308998e+01 2.547039115181231850e+01
-5.267443688667199808e+00 4.814469457318960366e+01 2.224229507658521499e+01
-5.484369748752051521e+00 4.817666890655498690e+01 1.198364615887390094e+01
-5.160270604829359620e+00 4.812115672095042385e+01 2.276648287370562329e+01
-5.119583598715202299e+00 4.819960277704402785e+01 3.018726207357308411e+01
-5.038630768977202301e+00 4.815076963087317807e+01 2.660275931372960301e+01
-5.066436917678761809e+00 4.822308702402798275e+01 2.922281145499029975e+01
-5.039998923777235795e+00 4.820872012202934798e+01 2.994588013489025258e+01
-5.076926794625372885e+00 4.819067539115281562e+01 3.034049574827199791e+01
-5.086687898516109918e+00 4.819934713994214093e+01 3.054191472960785703e+01
-4.966998446158037872e+00 4.819867618478579629e+01 2.756442954604332130e+01
-5.042524826132936511e+00 4.818846626958316648e+01 2.969942749785085567e+01
-5.149666432705880759e+00 4.819710812899017327e+01 3.006987535137708534e+01
-5.156007548272942387e+00 4.822416072812346499e+01 2.884612484971615842e+01
-5.141351208246352833e+00 4.813274495725663371e+01 2.521001267877274188e+01
-5.320863324652736814e+00 4.815435919027134304e+01 2.080277239777286979e+01
-5.103204858966714497e+00 4.819930338108031975e+01 3.045957337204884752e+01
-5.229492220938861458e+00 4.816311254304816458e+01 2.615240339220588339e+01
-4.850178236622096684e+00 4.816071245263381684e+01 1.955552977129547898e+01
-5.150386350297289972e+00 4.810105809884049677e+01 1.961081393619608093e+01
-5.265580622625243734e+00 4.826359991956169182e+01 2.181753447378228472e+01
-5.091396111369127730e+00 4.820183563707086449e+01 3.086190996493915861e+01
-5.099512314618821485e+00 4.820082373057991276e+01 3.063041496892954640e+01
-5.458132723123565455e+00 4.825051685251298039e+01 1.251131092027757141e+01
-4.859682046968024416e+00 4.819737196542416768e+01 2.119434666496688280e+01
-4.768217854514658072e+00 4.821175589105335035e+01 1.526894128402734907e+01
-5.464303682688213648e+00 4.817292136633701460e+01 1.353371357815719556e+01
-5.344501431845790407e+00 4.812045221832154596e+01 1.645185201048589363e+01
-4.990766764285184287e+00 4.813194412879292372e+01 2.351274543431820518e+01
-5.064565560781688625e+00 4.807707104578847890e+01 1.619467780533792123e+01
-5.391729858102948469e+00 4.812421926583819953e+01 1.408707075982772672e+01
-5.029709217666257004e+00 4.821050334393208203e+01 2.957704177811237045e+01
-5.185272588799694660e+00 4.818970856370481215e+01 2.865315030835284205e+01
-4.853699637876224493e+00 4.816260951270857049e+01 2.001368487609035540e+01
-5.322459098464070060e+00 4.807614462279150302e+01 1.171224020162066637e+01
-5.182852866539827019e+00 4.811970887366868510e+01 2.193207153126220987e+01
-5.227849901946454381e+00 4.819017155936267471e+01 2.796533092082912120e+01
-5.269223046499956098e+00 4.813066413995944259e+01 2.109934497901432948e+01
-5.096085583291110055e+00 4.820081762056141628e+01 3.078296993747038712e+01
-4.788196412841918104e+00 4.815635659104660249e+01 1.534693744019551964e+01
-5.071116142193337062e+00 4.816672231465842202e+01 2.871090387411019407e+01
-5.189358459601807638e+00 4.811889686439901226e+01 2.195991393772833433e+01
-4.850043626698393950e+00 4.810665353532923660e+01 1.423095473906284880e+01
-4.929427732418634633e+00 4.822202562045887930e+01 2.482248015519321527e+01
-4.998608980553820302e+00 4.808226548251519716e+01 1.615708524599742901e+01
-4.974554752288161019e+00 4.808218730518650830e+01 1.528538312013426648e+01
-5.075618584295490621e+00 4.833695550380978290e+01 1.351805364362671291e+01
-5.048823168208054213e+00 4.830686799760330530e+01 1.829344478543194086e+01
-5.277824256083755827e+00 4.828349146754580801e+01 1.832705360451208065e+01
-5.173785027276903037e+00 4.828442307479127749e+01 2.185551276470010862e+01
-5.010181940247593779e+00 4.833364306636454444e+01 1.386415062916496588e+01
-5.387187505101217688e+00 4.818428026163103794e+01 1.857743051661199374e+01
-5.085689394178871225e+00 4.820750280554918277e+01 3.068898294583995323e+01
-5.238659715849956378e+00 4.827857750684187010e+01 2.120875499238587025e+01
-5.092110618312403858e+00 4.833209370736532406e+01 1.397179980948946643e+01
-5.397922193618311049e+00 4.814693506599380157e+01 1.556982440023614522e+01
-5.327500423686555742e+00 4.826152419425162066e+01 1.899976558849384034e+01
-5.025595806032053581e+00 4.817585924790736129e+01 2.916553880933311405e+01
-5.063539387919540502e+00 4.817004484075444992e+01 2.932591502972672970e+01
-5.100037656079108750e+00 4.821873875761811234e+01 2.968717502658845575e+01
-4.749487997185775967e+00 4.824540254726534272e+01 1.322139614970383903e+01
-5.006653046706546206e+00 4.811576115965605283e+01 2.123952073148283404e+01
-5.063807818289746798e+00 4.825680973947348917e+01 2.599284281072285907e+01
-4.960059461467655417e+00 4.816143422614651115e+01 2.535663802361563413e+01
-5.197891106732139832e+00 4.822143198057896285e+01 2.829567778112874876e+01
-4.852053824678163707e+00 4.815750037241473791e+01 1.982146132034885611e+01
-4.782865152069102344e+00 4.817446181960823282e+01 1.563957939777822759e+01
-5.105232627250713584e+00 4.821309842417019098e+01 2.985299811520158642e+01
-5.097644392516506251e+00 4.808310675583267368e+01 1.725914315968520540e+01
-5.046969127744898920e+00 4.824474591298086068e+01 2.786036050385365215e+01
-5.214943637180356362e+00 4.822009985620552186e+01 2.738686627477502711e+01
-5.146057127226915107e+00 4.816546869833825184e+01 2.822001798376676263e+01
-5.234706431830435491e+00 4.824736981918432832e+01 2.498696479766075029e+01
-5.232934714807701226e+00 4.828834276170336182e+01 1.944612757423639948e+01
-5.063812131722129628e+00 4.814908854666342819e+01 2.712702995019596486e+01
-5.025091146481830862e+00 4.826063124355026446e+01 2.499263955040211016e+01
-4.719947626620651704e+00 4.817196122984672968e+01 1.260648828776455233e+01
-4.944806928518079125e+00 4.808654516767825982e+01 1.535838016618940749e+01
-4.892871468963951642e+00 4.815491499045965895e+01 2.190623928109074825e+01
-5.010744604717738859e+00 4.810896332857591773e+01 1.985612964727042495e+01
-5.322702610981288274e+00 4.825225813658505558e+01 2.043177945399956030e+01
-5.155470307497746596e+00 4.819317817792833836e+01 2.949300746803687900e+01
-4.975683470399121511e+00 4.816761640429068336e+01 2.603918408266752493e+01
-4.856682088521112384e+00 4.824823611591466488e+01 1.951057910235153159e+01
-5.228655045660770107e+00 4.832050113409942327e+01 1.444543663152663626e+01
-5.074809010071515303e+00 4.820094918827927444e+01 3.069944138757077212e+01
-5.069317305064356738e+00 4.820098969346271645e+01 2.988632161306275137e+01
-4.949803374751237328e+00 4.823406239942154627e+01 2.552735931816446779e+01
-5.283972633208249725e+00 4.824082596026894265e+01 2.326813485979702989e+01
-4.813674122108270836e+00 4.828195478001366325e+01 1.341637893867300768e+01
-5.002715525787721162e+00 4.830271968603063470e+01 1.867226872904176105e+01
-5.365031098127179376e+00 4.812279315244578015e+01 1.508688575622528028e+01
-5.320648989197961143e+00 4.819616664107859805e+01 2.291681144481408694e+01
-5.168504688506297740e+00 4.824775839977169056e+01 2.695177273557716191e+01
-5.077349495429867687e+00 4.806907445220284814e+01 1.422632749076934822e+01
-4.846525545195389917e+00 4.829204606122960541e+01 1.379549859771875653e+01
-4.753339360299350780e+00 4.819065057106688954e+01 1.433423204629926850e+01
-5.263329051663709457e+00 4.813697529277290243e+01 2.137406058977931167e+01
-5.171470588883449793e+00 4.824194415249134238e+01 2.753389837651188898e+01
-5.234017482256581921e+00 4.827865489602782390e+01 2.110631715887890181e+01
-4.867654131232450609e+00 4.818264650280197259e+01 2.178548596622989919e+01
-5.231653835451487211e+00 4.821478005426452995e+01 2.697202071969472215e+01
-4.728333119539825269e+00 4.817024908233124592e+01 1.282410570661682669e+01
-4.714831775228516264e+00 4.820391677837414335e+01 1.188045365517638885e+01
-5.107828320479157469e+00 4.820048078492089161e+01 3.090774740258504849e+01
-4.951087691870355911e+00 4.832821764021924338e+01 1.314644261696049021e+01
-5.040268964157056608e+00 4.810774080554438115e+01 2.014129250332748811e+01
-5.159467638561622493e+00 4.833438069798638281e+01 1.403127594758560903e+01
-5.127029124036100782e+00 4.815207103766485375e+01 2.756228265492964624e+01
-5.020128276853315974e+00 4.830955526071887363e+01 1.766576213765865333e+01
-5.117828120710279372e+00 4.822094303466239751e+01 2.949592196417411927e+01
-5.160723807430626309e+00 4.817182984398639434e+01 2.867037106123076384e+01
-5.069979138994981760e+00 4.817078761998127590e+01 2.889069037784835814e+01
-5.088773224667265893e+00 4.824514769914078016e+01 2.768426219861718707e+01
-4.949446665869503548e+00 4.830024030424839054e+01 1.694171924673661778e+01
-5.165489079415923612e+00 4.811511721229359750e+01 2.175997261465707666e+01
-5.070299082642607758e+00 4.828746022657489334e+01 2.212097761231552440e+01
-5.190777744835682661e+00 4.832903424982707463e+01 1.454225735646948792e+01
-5.006127399659208166e+00 4.828889727116133912e+01 2.032991172785382261e+01
-4.944275715545084715e+00 4.808463187468257871e+01 1.453849521709279280e+01
-5.186924772337967227e+00 4.819283671866187291e+01 2.870888433106035720e+01
-5.192775342280837592e+00 4.816186773479535077e+01 2.746353610933916656e+01
-5.255065991882528209e+00 4.818673293385605660e+01 2.569790557409799092e+01
-4.957617014737671468e+00 4.814103313360615033e+01 2.340352866014427491e+01
-5.136032013434268073e+00 4.818636892791901971e+01 2.970527929709024306e+01
-5.261771825308378503e+00 4.806347097241585686e+01 1.205916841213117152e+01
-5.162579541790327298e+00 4.821333576819417033e+01 2.911641686445494770e+01
-5.073352574064532661e+00 4.818708080846306530e+01 2.981792393485500625e+01
-5.029128674539151689e+00 4.821854633644927901e+01 2.933471360028239161e+01
-4.901812834030430110e+00 4.823052778297850551e+01 2.331455881841377220e+01
-5.401322444759252051e+00 4.816377356738884430e+01 1.623586907812153157e+01
-5.171685763464989094e+00 4.817949370763983552e+01 2.897364595669430543e+01
-4.747437025220659912e+00 4.817496857303351021e+01 1.354417409979668641e+01
-5.151495964513345349e+00 4.816974436323670972e+01 2.859513181018431993e+01
-5.126801439430489715e+00 4.819252287831201187e+01 3.007284446057457572e+01
-5.225190094277665231e+00 4.810775823843853516e+01 1.948235102959806042e+01
-5.051120831506517028e+00 4.819489327995882633e+01 2.962860971264188592e+01
-5.171533634450439898e+00 4.822126959529743573e+01 2.912421370664246112e+01
-5.137666101877624847e+00 4.806157848211135075e+01 1.337828244935938748e+01
-4.802034005400818373e+00 4.820401375041422654e+01 1.810355130143194557e+01
-5.032304639801684409e+00 4.818832436685775633e+01 2.940974680645459927e+01
-5.019755239682645254e+00 4.825098654919351304e+01 2.595517933255342058e+01
-4.905124048382950797e+00 4.823728681028548237e+01 2.324215003150048631e+01
-5.419404410316277065e+00 4.820753828558890319e+01 1.659716245772836274e+01
-5.138690574306961523e+00 4.815341260135194545e+01 2.761274040520886430e+01
-5.200349278799187402e+00 4.823514868208781081e+01 2.762627858598687780e+01
-5.106358672922413966e+00 4.820039608027891376e+01 3.062552888160962539e+01
-5.088699764084997135e+00 4.813936018958556673e+01 2.632595670810385968e+01
-5.111622929797405845e+00 4.814129122404283123e+01 2.670989466454731343e+01
-4.924182400062107057e+00 4.827971143267387788e+01 1.954284139789205810e+01
-4.943867784932042042e+00 4.833717657148176272e+01 1.139031159507661073e+01
-5.097299424963743775e+00 4.819252821535409481e+01 3.056791382118701961e+01
-5.045316693826027432e+00 4.825902084358818200e+01 2.528331427247223928e+01
-5.181148618807962514e+00 4.810419380156466218e+01 1.948608618165033946e+01
-4.999626247356139253e+00 4.829150701082595276e+01 2.015523080790761057e+01
-4.949011548092514978e+00 4.827085656053343854e+01 2.159602439009538344e+01
-5.146561963062007194e+00 4.822401163670587465e+01 2.906163469612040728e+01
-4.995291284863915493e+00 4.824734562825786810e+01 2.544518631338500469e+01
-5.213181536092255541e+00 4.823431669991851578e+01 2.681971382576737639e+01
-5.197094691237325925e+00 4.820706694623757471e+01 2.865435803665451431e+01
-5.057206219602116803e+00 4.815478504750940658e+01 2.718463035545708095e+01
-5.067199324155813756e+00 4.824546872603941239e+01 2.779593327084491605e+01
-5.040529988677129758e+00 4.823082521610662354e+01 2.829550072187972631e+01
-5.476016364930551106e+00 4.819123279291935091e+01 1.296026428272466902e+01
-5.210106170579424045e+00 4.806380273670794878e+01 1.244319895317373437e+01
-5.117697263260303941e+00 4.819943384459634217e+01 3.002596611019487582e+01
-4.780553956499142387e+00 4.814450043237978605e+01 1.451529600896745187e+01
-4.884753941172088609e+00 4.815646091973179210e+01 2.146341209222892488e+01
-5.019863365334497729e+00 4.820695532117320425e+01 2.922966174057120625e+01
-5.108024803957880167e+00 4.823034886665606535e+01 2.895285293006218197e+01
-5.283403556519919775e+00 4.820013699017050612e+01 2.506312046897676638e+01
-5.126756901604534455e+00 4.812224955264814952e+01 2.288325330944654823e+01
-4.883668391015222099e+00 4.810518996187538932e+01 1.527084230898482886e+01
-5.095061657399733157e+00 4.819869980558645040e+01 3.022070993422389762e+01
-4.758603474498322328e+00 4.819190167190353691e+01 1.512461602233474345e+01
-5.242796096137765538e+00 4.809076433540148088e+01 1.640628386945378736e+01
-5.095186172150852677e+00 4.826807615629252268e+01 2.454562742634984573e+01
-5.243980235252422517e+00 4.833335451881893619e+01 1.219505172812782767e+01
-4.934244454634312049e+00 4.813260445701692447e+01 2.112452076873195494e+01
-5.117537894077101690e+00 4.821003891698312316e+01 3.037912062951916781e+01
-5.175914035403892832e+00 4.818492215337617068e+01 2.872964849164320711e+01
-5.092712067589243219e+00 4.819318660225658846e+01 3.059241945251258343e+01
-4.894641574121608940e+00 4.821638786843010394e+01 2.360197708862190069e+01
-5.116674732040166873e+00 4.825171743781454836e+01 2.752722876217843506e+01
-5.106267449855852902e+00 4.820140084153189264e+01 3.031233895968818715e+01
-5.186964331210699441e+00 4.815289352527196343e+01 2.645659128460610177e+01
-5.344398572867762098e+00 4.819161554480037069e+01 2.145152870649141263e+01
-5.453546117751471911e+00 4.813914626940815111e+01 1.237131284929754216e+01
-5.114396001010569570e+00 4.819568135806287756e+01 3.001410406760714977e+01
-5.057930326772549279e+00 4.828253683200374979e+01 2.254629462565705111e+01
-4.924278717781233716e+00 4.822661499638633131e+01 2.467978760957528905e+01
-4.820388081409601178e+00 4.828392107266840583e+01 1.396356818741080197e+01
-4.874617863273089213e+00 4.820999039438589762e+01 2.250242022416508192e+01
-4.906460338481486438e+00 4.821455610634067313e+01 2.438046145679263077e+01
-5.097618719583032032e+00 4.819753825491469001e+01 3.035878558320429477e+01
-4.851168095961558180e+00 4.814044053702694725e+01 1.763723383358791708e+01
-5.114395003020499431e+00 4.819424414542353219e+01 3.040787745302715450e+01
-5.103418029213952600e+00 4.818905457219454291e+01 2.989370804473805521e+01
-4.985136348763927749e+00 4.825702912518622867e+01 2.476873639025056306e+01
-5.104221215076129248e+00 4.814775327294965734e+01 2.668900695692671476e+01
-5.115148700887218958e+00 4.808410136937710888e+01 1.659746212519058872e+01
-4.871086889954105104e+00 4.820715837556190309e+01 2.239915777690492149e+01
-5.316538617559157132e+00 4.819109291935479433e+01 2.232846749719486112e+01
-5.108210360477028367e+00 4.820431273465219846e+01 3.015372969187319896e+01
-5.097926679401939332e+00 4.822787502881764254e+01 2.934586550153887430e+01
-5.139790614714800476e+00 4.819260817258912510e+01 3.050688243051438064e+01
-5.214183665922079491e+00 4.820838200616115188e+01 2.843197236182612286e+01
-5.085793247640981285e+00 4.821815027239456697e+01 2.976884452491835376e+01
-5.174086275626755160e+00 4.822681968852031531e+01 2.899659609352814371e+01
-5.264932025752654177e+00 4.814424698991548013e+01 2.208647224369331852e+01
-5.378357919477297244e+00 4.815360296479827440e+01 1.717977484860680093e+01
-5.131478884921371275e+00 4.811208845055640637e+01 2.197659208872448033e+01
-4.932330904151196904e+00 4.831542083848095359e+01 1.402708922318674567e+01
-4.776223879464148503e+00 4.825755506073621603e+01 1.351899603688332796e+01
-5.085305254453029278e+00 4.819803998817715041e+01 3.068703147972929557e+01
-5.109797863205924884e+00 4.817222727038055297e+01 2.899186278987316356e+01
-5.256148892607395595e+00 4.817069939100414189e+01 2.515371343244852653e+01
-5.112490535405181724e+00 4.820837561021716056e+01 3.026300790763430015e+01
-4.870511765208701327e+00 4.818504925587228627e+01 2.213154955399044255e+01
-5.158087392132252980e+00 4.823030217355423588e+01 2.892604814901356036e+01
-5.130750686132446781e+00 4.823228168738818056e+01 2.943073431410761742e+01
-5.286785696606922436e+00 4.823994697506824991e+01 2.316003054085260970e+01
-5.010927098306511951e+00 4.819621179293077518e+01 2.898560043472636494e+01
-5.182347800458666498e+00 4.813290270920654734e+01 2.392298844316194462e+01
-5.087539249736291680e+00 4.820411182811729134e+01 3.018085675626098663e+01
-5.105679786529996100e+00 4.822128708647895223e+01 2.988047542308637361e+01
-5.299466378892701002e+00 4.818559091688771190e+01 2.340789299311670746e+01
-5.094039323168204625e+00 4.817814997823029444e+01 2.992345187779223181e+01
-4.898763836160298979e+00 4.811357619910776862e+01 1.691600565764081665e+01
-4.897779552161968475e+00 4.808430685089144418e+01 1.326561148169551707e+01
-4.878883017018471158e+00 4.816717027321902833e+01 2.180689427933367597e+01
-5.007441024961700293e+00 4.820775665615958872e+01 2.860712720267403242e+01
-5.159822502669767275e+00 4.824669844934160068e+01 2.695524888353935111e+01
-5.168792475058006097e+00 4.812937512121743566e+01 2.414243296192587351e+01
-5.257773555882130800e+00 4.827470592976915498e+01 2.017767455186752557e+01
-5.165153129943125698e+00 4.810038962709472088e+01 1.919907310311065984e+01
-4.934399844652273437e+00 4.808522037627442103e+01 1.445123459897452989e+01
-4.972678735925436300e+00 4.820252244066288227e+01 2.786288330822290504e+01
-4.902681249409691411e+00 4.831251623961558295e+01 1.431235264967951260e+01
-5.030163827614188676e+00 4.815846670352201642e+01 2.780057389196639406e+01
-5.209849408617602151e+00 4.806044639492480997e+01 1.187680328479636849e+01
-5.114504786867848374e+00 4.825323714591640112e+01 2.685667842071392641e+01
-5.188616845192693283e+00 4.825049723221700049e+01 2.578904935603691229e+01
-5.160895600277311424e+00 4.821304833107767962e+01 2.976622973774300718e+01
-4.957078982939177259e+00 4.811212142737963404e+01 1.936106989664451561e+01
-4.982304326375574632e+00 4.815844889189043698e+01 2.580689680502556627e+01
-4.857509451070758821e+00 4.813734976568469648e+01 1.806593098132971065e+01
-5.148249133411678891e+00 4.808572018004796433e+01 1.687063435107247500e+01
-5.337039461207023550e+00 4.810178696594365277e+01 1.439359503304175902e+01
-5.083433931142640638e+00 4.820075875259259135e+01 3.010085985438319511e+01
-5.078075544417469445e+00 4.819984502292375339e+01 3.069071768906067632e+01
-5.349191909568238756e+00 4.815817619290609741e+01 1.954717310005869280e+01
-5.080303937532162806e+00 4.818633503415165364e+01 3.024500148721380910e+01
-5.226831901252614543e+00 4.831220682761187390e+01 1.643699729260752207e+01
-5.059283285055014900e+00 4.813377679003662735e+01 2.490923904966738078e+01
-5.233804818624427035e+00 4.812313036621063134e+01 2.146559170730115795e+01
-5.016916565709158782e+00 4.817399992659005648e+01 2.869623504764203759e+01
-4.841727895670329573e+00 4.827116179377486560e+01 1.632740678209372476e+01
-5.085263756511517741e+00 4.816378596331620088e+01 2.892234365371571769e+01
-5.109925500899899831e+00 4.819475872017471119e+01 3.034162785355306724e+01
-5.319909258937427055e+00 4.810279757725790972e+01 1.531095853959350350e+01
-5.029934487921469355e+00 4.819295264032594162e+01 2.988140912144838879e+01
-5.434252158400054711e+00 4.825256271444926881e+01 1.410237462134870157e+01
-5.347825173913699714e+00 4.820988588929044028e+01 2.067678232782627035e+01
-5.372648339551201246e+00 4.819269267170496107e+01 1.923518652494585268e+01
-5.378778812102464002e+00 4.816677516564707418e+01 1.814444688140769557e+01
-5.063570289819465664e+00 4.820067893684807814e+01 2.997048150433901625e+01
-5.163632304219526681e+00 4.816325294698924608e+01 2.824660871419953878e+01
-5.300157141707027009e+00 4.811651325895878983e+01 1.801042581380306373e+01
-5.305362673112627547e+00 4.824814200362802552e+01 2.086557485507659138e+01
-5.129575332947146293e+00 4.821380687372170826e+01 2.975440573280773648e+01
-5.282868083671221626e+00 4.820692929918950398e+01 2.483714273837221853e+01
-5.435489622950596456e+00 4.827091630546863144e+01 1.255632243382026836e+01
-4.844623608973700257e+00 4.811715728680412951e+01 1.558331002896653317e+01
-5.120940561662139956e+00 4.820274188304112073e+01 3.077409545381391354e+01
-5.101652727227955708e+00 4.819301124199979114e+01 3.090504168970757348e+01
-5.143886242193474345e+00 4.819362039161102729e+01 3.019899359990083454e+01
-4.845105104973850274e+00 4.819756982101152687e+01 2.092992036452250915e+01
-5.438849232391269162e+00 4.824240337392902234e+01 1.370055221496375530e+01
-4.798304668822222396e+00 4.825102936008951815e+01 1.555596571554067964e+01
-5.122470283168694571e+00 4.811843365133599804e+01 2.291330875802158573e+01
-5.365824635922429309e+00 4.824769579727001201e+01 1.834918637517174389e+01
-4.799448279228247571e+00 4.819703282769420127e+01 1.735682078236671799e+01
-5.081113025534373051e+00 4.826142685116586506e+01 2.582236970372602869e+01
-5.240658946693657505e+00 4.825444402080092487e+01 2.370437733557647775e+01
-4.851629745957076523e+00 4.827021414241133357e+01 1.721415810726176332e+01
-5.244143252363142160e+00 4.830205988297824149e+01 1.752615077852323822e+01
-5.093508393755899810e+00 4.815002796001784446e+01 2.703593672235826162e+01
-4.751972698078844815e+00 4.826260322754497167e+01 1.259795393136691644e+01
-5.381248050637252867e+00 4.829603420403982028e+01 1.239390141658107858e+01
-5.091155519259583428e+00 4.814820485383506110e+01 2.663860303889015668e+01
-5.318629219249138451e+00 4.818337602419960319e+01 2.238172848230696843e+01
-5.320266396754325555e+00 4.823779260682644576e+01 2.165644023225267034e+01
-5.193255641934746869e+00 4.819609710638094668e+01 2.901220349815953981e+01
-4.955432631418315026e+00 4.807743554097888250e+01 1.358846743222490616e+01
-5.163656477591035632e+00 4.822450868158507831e+01 2.931425609810624522e+01
-5.338156613433485020e+00 4.825468770274431307e+01 1.916255923617755030e+01
-5.110114304513087902e+00 4.811987087983324329e+01 2.312729336979280959e+01
-4.747179395369089505e+00 4.822699135787632230e+01 1.366218863774721903e+01
-5.135494447753043090e+00 4.818139974432686046e+01 3.008177729702345005e+01
-5.209652759027520119e+00 4.807756767499236616e+01 1.517637842318174179e+01
-5.277077887832620107e+00 4.819601189416027154e+01 2.499232585948048069e+01
-5.081795581708504983e+00 4.820195731467977396e+01 3.020862868352209674e+01
-4.942494126697952517e+00 4.807195732357344298e+01 1.275787696995472764e+01
-4.816288953314511012e+00 4.822975798298097772e+01 1.832369322520694155e+01
-5.222559706447282402e+00 4.818154598538924915e+01 2.735928553602847657e+01
-4.899146933563080175e+00 4.818134485470127970e+01 2.309925117403872008e+01
-5.052176100008241910e+00 4.819582240649137361e+01 3.041629943561820326e+01
-5.124484548134367046e+00 4.820549059846239714e+01 3.056031148922858520e+01
-4.748857034425171264e+00 4.814354609067662238e+01 1.265415766944945375e+01
-5.253661898220404858e+00 4.814148147255691157e+01 2.226931756317129540e+01
-5.068724177319072766e+00 4.829762230306732818e+01 1.992916612418320099e+01
-5.142292809183892643e+00 4.828476727178846772e+01 2.197587727476016539e+01
-5.061629539017385326e+00 4.825988980460419242e+01 2.609125873281647756e+01
-5.095552821187644632e+00 4.816777939331369396e+01 2.884139613447972295e+01
-4.981772190575128434e+00 4.825331662477471184e+01 2.473760578273622812e+01
-5.280892721729695261e+00 4.827968164975145982e+01 1.868830522725046706e+01
-5.102203951539074467e+00 4.819886511653886174e+01 3.088632581870939475e+01
-5.331901431034511418e+00 4.811600759671092931e+01 1.575197611058828073e+01
-5.040086641584602845e+00 4.828218700356500648e+01 2.184169964187118396e+01
-5.151355823000381307e+00 4.820208127852559699e+01 2.982411108951064094e+01
-5.089278279682050155e+00 4.820777306956348696e+01 2.993580021767240140e+01
-5.089567842368381001e+00 4.825315564261474321e+01 2.699561260644743754e+01
-4.846723048792881627e+00 4.812416717493475460e+01 1.580018199574014837e+01
-5.115701091860757721e+00 4.820068566864811999e+01 3.017274255726981025e+01
-5.233761404175679921e+00 4.807354253993684523e+01 1.341873400765602220e+01
-5.323257203521645664e+00 4.826986732021060789e+01 1.784621908716609440e+01
-5.014253421884422579e+00 4.830766420609529632e+01 1.810598906796920460e+01
-5.261014151847478004e+00 4.806275241095303841e+01 1.131935603283408831e+01
-5.259306899973243077e+00 4.824384907422437863e+01 2.395772275419989228e+01
-5.037463646075578616e+00 4.830548003897981602e+01 1.885072929421305687e+01
-4.795388383249402864e+00 4.823568994165321300e+01 1.632407710903059694e+01
-5.044265990226413088e+00 4.818239110183090190e+01 2.951283163780153984e+01
-5.045812521810884910e+00 4.821442756986557754e+01 2.947060560681076424e+01
-5.121214313739731239e+00 4.824193334747381812e+01 2.824118637316203717e+01
-5.138338549570075742e+00 4.807542434897537476e+01 1.502683455111587385e+01
-5.200462965269348814e+00 4.815198888032283264e+01 2.631592689013273656e+01
-4.727922052625945781e+00 4.815618229063017708e+01 1.239947070795406781e+01
-5.089766390053916290e+00 4.834820853849444688e+01 1.151901598326815268e+01
-5.440891034275437299e+00 4.825648818870006096e+01 1.272230427288940469e+01
-5.096208715540611500e+00 4.820002189313932206e+01 3.073087412965931620e+01
-5.409756300089639147e+00 4.819610316978229747e+01 1.700098810348335476e+01
-5.234172621317476626e+00 4.828513258002660535e+01 2.003000354139650696e+01
-4.806295127594554017e+00 4.811971287895327976e+01 1.341490149047772995e+01
-5.199765805773784777e+00 4.807600404561639351e+01 1.478631929758030594e+01
-5.114139755622225003e+00 4.820423434087201287e+01 3.019194102872327434e+01
-5.091700240812677691e+00 4.819720500007390029e+01 3.065172065839962556e+01
-5.222910916572329754e+00 4.811097331870284677e+01 1.962188419853181287e+01
-5.212655300266813896e+00 4.819303587581367765e+01 2.774147850922014058e+01
-5.113725755864002132e+00 4.821488026775937641e+01 3.045642965664361057e+01
-5.209245522425828057e+00 4.818469895294787619e+01 2.817206054246131686e+01
-5.206022348943491806e+00 4.824377940589171487e+01 2.615042826977744994e+01
-5.224193651787091497e+00 4.816673888155484917e+01 2.650210227304861021e+01
-4.838068056986365661e+00 4.810653337058882073e+01 1.416470302911709034e+01
-5.368774994072753159e+00 4.817653707892925752e+01 1.880422121606489227e+01
-4.805405782050410579e+00 4.828209790540777391e+01 1.323657727612310886e+01
-5.329935227777917284e+00 4.822727305679062937e+01 2.133210467375728214e+01
-5.324844406196190150e+00 4.830304475857622037e+01 1.378477753912318882e+01
-5.130874475589481953e+00 4.818857115700303240e+01 2.990596448196327728e+01
-5.230678367403977624e+00 4.811275518249387773e+01 2.004544863334268001e+01
-4.991339716103157187e+00 4.823540750992463444e+01 2.693681435379448885e+01
-4.871752307690081274e+00 4.824847044404263130e+01 2.013984930213916158e+01
-5.149154208175843905e+00 4.824772102135712259e+01 2.740880762908917490e+01
-5.192744086118032065e+00 4.830448631190937903e+01 1.767996115726143813e+01
-5.021707468629567295e+00 4.821805106896798776e+01 2.861180335119827234e+01
-5.090719017490065390e+00 4.820178087898405295e+01 3.044815159294070384e+01
-5.100028743094827455e+00 4.819999272279051894e+01 3.056077091562589843e+01
-5.300091460177445590e+00 4.831994315846409194e+01 1.255006053516399156e+01
-4.968192723662399501e+00 4.827848752558990952e+01 2.113646350905840876e+01
-4.754964040452837715e+00 4.825738931347019900e+01 1.300671027173233796e+01
-5.132644686244737464e+00 4.820066642185420847e+01 3.010267745097034009e+01
-5.030859858798562456e+00 4.823703494120791646e+01 2.833347502062891010e+01
-5.343550697937168970e+00 4.813869329231673078e+01 1.771265692240285361e+01
-5.091476845835351206e+00 4.814124567603146687e+01 2.620204626838617301e+01
-5.103890779774920894e+00 4.820121997878626985e+01 3.003296844160575318e+01
-5.080007329417949968e+00 4.821913568809970485e+01 3.021013722871910190e+01
-4.863866385016709870e+00 4.823044174930551264e+01 2.113735922249789567e+01
-4.957055569832189867e+00 4.828533501235877878e+01 1.932083915303820021e+01
-4.958781402998383214e+00 4.821437082490749759e+01 2.673436856155736407e+01
-5.345304454359006918e+00 4.825973253531515184e+01 1.812012381596476729e+01
-5.010589565046335458e+00 4.832875571832813222e+01 1.383595028254037018e+01
-5.127191173685081260e+00 4.807410566663830309e+01 1.554003453177534588e+01
-5.181352272605384002e+00 4.807081557971243768e+01 1.433273385876865014e+01
-5.017340268204366183e+00 4.822319856901213342e+01 2.857596925554630474e+01
-5.162889678167790208e+00 4.820264116712507274e+01 2.953264388731096091e+01
-4.782996667902371435e+00 4.817769423955869712e+01 1.594913689866786832e+01
-5.179299710206419327e+00 4.807461489477044836e+01 1.444618962915379967e+01
-4.998816623221110866e+00 4.808566139901830638e+01 1.603381003642313374e+01
-5.083115469565955280e+00 4.823078047959332082e+01 2.893070566365658181e+01
-4.723577481167508196e+00 4.822678294239160124e+01 1.223667481196098272e+01
-4.932855919708460490e+00 4.809910547961715821e+01 1.630227324648472731e+01
-4.904828923025513099e+00 4.823903636357613323e+01 2.295478921889112911e+01
-4.873596213333328819e+00 4.827424679046264089e+01 1.800023277349406925e+01
-4.891058401031349590e+00 4.821832169537840684e+01 2.271283423656051781e+01
-5.087530163863538846e+00 4.823675075396185008e+01 2.848471942017407343e+01
-4.884507299148922677e+00 4.826495272728361385e+01 1.865623709883616854e+01
-5.180759480808562856e+00 4.818123274506826448e+01 2.880094209915825587e+01
-5.104044069344966239e+00 4.823749886771377504e+01 2.835807378391375622e+01
-5.088741182484286973e+00 4.823078069673974255e+01 2.919851542915124298e+01
-4.992109366679145843e+00 4.821630450317698546e+01 2.845793643873595258e+01
-5.426236361403706354e+00 4.813449403068208454e+01 1.326933035891260815e+01
-5.126071799008553143e+00 4.805131585267698568e+01 1.159415494691774207e+01
-5.341504934972055807e+00 4.829017599323942278e+01 1.518520318256618928e+01
-5.101080930603126617e+00 4.820168314196207149e+01 3.030034011126398497e+01
-5.433281502938116070e+00 4.818639114019675418e+01 1.557222860289273392e+01
-5.102792769758544900e+00 4.818931991653616365e+01 3.058771107835270442e+01
-5.124282849798183825e+00 4.821058611827468354e+01 3.073768354854496110e+01
-5.136822879933601982e+00 4.816538548249901197e+01 2.889657011038661949e+01
-5.103771398421981687e+00 4.820067721676784345e+01 3.042735902253197722e+01
-5.195429399626524614e+00 4.812873179121279321e+01 2.313577803592860604e+01
-5.098089501258260547e+00 4.818568150804471628e+01 3.038028643562495290e+01
-5.199308010435512273e+00 4.818736946769698193e+01 2.863076211372781188e+01
-5.066530809861498064e+00 4.834778513273418099e+01 1.171583962879642016e+01
-5.175762500305859604e+00 4.818889929522461557e+01 2.958992499816785227e+01
-5.222419968797075818e+00 4.818348808873187750e+01 2.768048114499237045e+01
-5.294215631336459005e+00 4.824553097009935954e+01 2.216894610985342595e+01
-4.838586489951139491e+00 4.816181243903275089e+01 1.895314224627153266e+01
-5.201675697980447488e+00 4.810162870426021442e+01 1.870991016077917735e+01
-5.276764193907469647e+00 4.821645797264947930e+01 2.475588298392853659e+01
-5.032471121917321710e+00 4.819977631649378225e+01 2.969797814755774468e+01
-5.027133335475070020e+00 4.807602195396572142e+01 1.490691105700397934e+01
-4.737258156083266059e+00 4.824507325113691536e+01 1.293484952687597556e+01
-5.322728610037240848e+00 4.813918306044433848e+01 1.933455759830200904e+01
-5.064426186953597586e+00 4.817070384001120686e+01 2.875947733860738964e+01
-4.855546186919884377e+00 4.821602906329245997e+01 2.052230696678886446e+01
-4.950464194451289046e+00 4.821962196209204876e+01 2.577132750974728026e+01
-4.913534876122421124e+00 4.811541632216648878e+01 1.796236146334595674e+01
-5.089444720264985733e+00 4.819825413249384383e+01 3.022240374305155797e+01
-4.879943009178386859e+00 4.829709190761405324e+01 1.461099986662341443e+01
-5.302558520666233122e+00 4.819212979785724826e+01 2.360862701351879167e+01
-4.956776754993959422e+00 4.820757822507469825e+01 2.654310562269779084e+01
-5.096981763475904259e+00 4.820862540790752604e+01 3.030900228862187618e+01
-5.116646472071783691e+00 4.807930501290189795e+01 1.610293227369027846e+01
-5.155538548270998334e+00 4.825921419082464325e+01 2.564739252521722790e+01
-5.164239361789705995e+00 4.826425177325259597e+01 2.464642475995649562e+01
-5.046284656830192894e+00 4.814778935845750141e+01 2.645627073555521136e+01
-4.844932296554230078e+00 4.809578898867891894e+01 1.289472362557599183e+01
-4.929066446187571060e+00 4.826013426771462633e+01 2.227380141103037303e+01
-5.035795597026821113e+00 4.820201119422498692e+01 2.985873492305087140e+01
-5.176336773880948705e+00 4.817274289997754977e+01 2.810551732624039545e+01
-5.134081192951065908e+00 4.830267939656998522e+01 1.913782569801910327e+01
-4.984612204744879094e+00 4.824051049704406324e+01 2.635115177152088606e+01
-5.142019012352250229e+00 4.813416061201024831e+01 2.513319453337262388e+01
-4.996860047992993437e+00 4.821076578356341713e+01 2.858705715781310630e+01
-4.997209058487142919e+00 4.828716579242169615e+01 2.037642431178573332e+01
-5.329596290774889056e+00 4.812263883992771696e+01 1.716305959219554822e+01
-5.012346223949530000e+00 4.821780587336004942e+01 2.885540726732158845e+01
-4.889723390120960467e+00 4.826973777972406765e+01 1.833794472984925505e+01
-5.070975800599967442e+00 4.821022715390720492e+01 3.032157919964237180e+01
-5.166120308051367793e+00 4.819635706573708944e+01 2.958773165941775574e+01
-5.170654086470346300e+00 4.821378200909963141e+01 2.979774603904735741e+01
-5.128504724312151986e+00 4.828254833943547197e+01 2.210838464596875141e+01
-5.230934102092216875e+00 4.813823213629823528e+01 2.321121236960581768e+01
-5.256975714542838851e+00 4.824031357821635879e+01 2.404451221302871389e+01
-5.024794209778773890e+00 4.807147992641512957e+01 1.423977750749594406e+01
-5.144791130561598536e+00 4.806997658997663336e+01 1.429906108066298920e+01
-5.055776355102327813e+00 4.816487100457566584e+01 2.812837564466151363e+01
-5.112028100465970226e+00 4.818928609959343135e+01 3.051995937930453451e+01
-5.217708747982029216e+00 4.822609327399961643e+01 2.740631603242830394e+01
-5.354802135946515662e+00 4.825317491479614773e+01 1.771373105957099625e+01
