-5.205753734493153040e+00 4.799556318635714547e+01 1.185353484681314384e+01
-5.256317063820771018e+00 4.813799704502267218e+01 1.192401938298932151e+01
-5.331405460136230623e+00 4.801685102298917229e+01 1.178394192913455996e+01
-5.356704741143746951e+00 4.771864439920330625e+01 1.138408778614494388e+01
-5.441259288254049586e+00 4.791862277458582753e+01 1.106358610469035675e+01
-5.126409334773557980e+00 4.791371650684406092e+01 1.121606686621173843e+01
-5.065410183226486396e+00 4.807003743088248626e+01 1.143398019453940684e+01
-5.266044105352705174e+00 4.788358670171904663e+01 1.202494344203860877e+01
-5.148272181502070666e+00 4.802423781629297395e+01 1.158156300594315802e+01
-5.426451341888602009e+00 4.776669278133656604e+01 1.164888622110896321e+01
-5.201201604135989420e+00 4.799516989399528200e+01 1.116353709336540234e+01
-5.518673145547054126e+00 4.791537661496737144e+01 1.191189960369445799e+01
-5.265751926020368678e+00 4.791134598982081627e+01 1.173411508935316050e+01
-5.146308162054379132e+00 4.813716901262275627e+01 1.181231192275613040e+01
-5.522647304748175223e+00 4.787984472234693811e+01 1.131417162456969194e+01
-4.865515465102952852e+00 4.798064991856379891e+01 1.179748736853984958e+01
-5.211672881517682931e+00 4.820646773258890505e+01 1.152840512973249076e+01
-5.436578611479401246e+00 4.821671191886652963e+01 1.140200069321894993e+01
-5.394648539108861662e+00 4.790437333330379488e+01 1.130846702047828778e+01
-5.215665870954922845e+00 4.806081264744578618e+01 1.111455246814617936e+01
-5.177880314756885483e+00 4.800236516302842205e+01 1.155638931792089963e+01
-5.130248807047226300e+00 4.798676746229747181e+01 1.154963058067523818e+01
-5.295487116458724941e+00 4.783182409755568187e+01 1.164443541487995049e+01
-4.851451656976752069e+00 4.806114588817824540e+01 1.176181567325883570e+01
-5.282914837541910380e+00 4.802397960383320452e+01 1.172456440216935647e+01
-5.183845721214676239e+00 4.837814780661981473e+01 1.200431446024905746e+01
-4.996841020209638273e+00 4.804744426913097755e+01 1.115008223474521110e+01
-5.190839203296137683e+00 4.799271508466851088e+01 1.124800048401230690e+01
-5.076819826227897181e+00 4.791578568931511484e+01 1.191663753644699497e+01
-5.190369133338524676e+00 4.806463159257037177e+01 1.126774196643833825e+01
-5.180157721721467823e+00 4.797691376896368354e+01 1.121225814623035966e+01
-5.126705963261567689e+00 4.793214531737164208e+01 1.145690577184613979e+01
-5.219866133650132412e+00 4.795431048337895419e+01 1.111958398681132465e+01
-5.262159415007737984e+00 4.768116770151593187e+01 1.184861255533420810e+01
-5.279858971990296190e+00 4.781797661055948367e+01 1.115444308075035096e+01
-5.105096914788958884e+00 4.807225069335547118e+01 1.150795626452632270e+01
-4.986140826029966000e+00 4.783796495430287621e+01 1.134400463767451406e+01
-5.243522505052224503e+00 4.832565900990876884e+01 1.161365653235251649e+01
-5.027521199440708521e+00 4.823581159526661111e+01 1.130736395728425947e+01
-5.392629823164264202e+00 4.812955606015898979e+01 1.149044633371920909e+01
-5.160319155383423784e+00 4.828103281545742931e+01 1.130865766913367310e+01
-4.962179890270880023e+00 4.799905228326417017e+01 1.186488822685352496e+01
-5.335733251292012369e+00 4.787482061718083770e+01 1.137959534066912859e+01
-5.400029861732490666e+00 4.766893076229231241e+01 1.136740507650023879e+01
-5.370683622023224579e+00 4.791915919673267865e+01 1.151115938791056870e+01
-5.404562013329955228e+00 4.779547629660654451e+01 1.193773623295166075e+01
-5.179122775413989466e+00 4.821855597413264860e+01 1.104684791195613869e+01
-5.055775849201194383e+00 4.793777041556724328e+01 1.172707701209258246e+01
-5.058886226777346451e+00 4.767952219682449311e+01 1.162310504620158191e+01
-5.183259013871171383e+00 4.802176501454296442e+01 1.135241338185836391e+01
-5.157941152078262981e+00 4.795816757127165175e+01 1.127446299361932169e+01
-5.584742235297713187e+00 4.806469626359096026e+01 1.175408430377485303e+01
-5.233402811173313296e+00 4.795583067820617629e+01 1.120122869451369141e+01
-5.423922230215449503e+00 4.775078937279742064e+01 1.165513634206272364e+01
-5.281315756520140958e+00 4.818417411634025171e+01 1.128761678583849104e+01
-5.218016228074584539e+00 4.837553675087781357e+01 1.193114135194860026e+01
-5.269587336945563472e+00 4.834491371590232234e+01 1.191489356583672077e+01
-5.049271443912548563e+00 4.809379673945642963e+01 1.166101116396033888e+01
-4.975600080679473791e+00 4.768731022059820646e+01 1.178180211092437979e+01
-5.007048763524683643e+00 4.804320842918841805e+01 1.131010358154563988e+01
-5.287165355637734265e+00 4.800120784103653193e+01 1.111368330235070268e+01
-5.579075991774589127e+00 4.800410692391697154e+01 1.145040498480911140e+01
-5.503146981536800375e+00 4.800753198057518034e+01 1.163366401972880659e+01
-5.313849436991821662e+00 4.769493931451588509e+01 1.135282401845901390e+01
-5.262299977433643861e+00 4.771782460646677748e+01 1.194145261909950229e+01
-5.083128144207309518e+00 4.836191590998233636e+01 1.170462844535818370e+01
-5.351528697208157936e+00 4.800035941108748716e+01 1.201302645586028461e+01
-5.168210517789654013e+00 4.812261280302516298e+01 1.169261344863800289e+01
-4.855744129531189834e+00 4.806900731997134812e+01 1.141390239541329876e+01
-5.349699440944351458e+00 4.786677008619673046e+01 1.163150710055669990e+01
-5.145832674469972723e+00 4.773192724021252786e+01 1.163811913640704709e+01
-5.224999849628472859e+00 4.788480341602753754e+01 1.151965128426095752e+01
-5.079912826246800073e+00 4.808606856944152952e+01 1.119894088477281180e+01
-5.201526035681773408e+00 4.808697692971734483e+01 1.188328825541500322e+01
-5.106091591706556798e+00 4.828000970806338898e+01 1.186239102741499529e+01
-5.154726680607653044e+00 4.796104658992540948e+01 1.135254096540549540e+01
-5.319535815307916415e+00 4.816861199010282490e+01 1.197751522445015127e+01
-5.094215142820225140e+00 4.781232742754080078e+01 1.159834448535987583e+01
-5.282410793326018705e+00 4.801077259797914820e+01 1.173081406333957233e+01
-5.102064218915969285e+00 4.802937826569323931e+01 1.183167712523279569e+01
-5.253715916273322684e+00 4.775980507364635486e+01 1.136370816756317303e+01
-5.200111036017453614e+00 4.805412221637375580e+01 1.155779474084966907e+01
-5.097684602453146141e+00 4.780406387205215424e+01 1.140801211158004058e+01
-5.031535819492869877e+00 4.781950377935792318e+01 1.163681148014693001e+01
-5.157476373686681548e+00 4.794040883232298000e+01 1.111656016251758317e+01
-5.112327560318625785e+00 4.772779322217914455e+01 1.190119883436081771e+01
-5.197714447202821830e+00 4.799920215262370249e+01 1.196307319934901869e+01
-5.173882094040007651e+00 4.812580611476008841e+01 1.111290545800530616e+01
-5.269403632728549169e+00 4.795081010121639764e+01 1.196653979810435509e+01
-5.226671110926931263e+00 4.796556293353240363e+01 1.114459154906251470e+01
-5.396726747383294054e+00 4.812868441600286218e+01 1.182127954262209535e+01
-5.241509924508682694e+00 4.805528825857071951e+01 1.125041109258147998e+01
-5.181334253969846593e+00 4.837708277801380774e+01 1.155728888472547844e+01
-4.973958019143132070e+00 4.822020511048058466e+01 1.157244299994844816e+01
-5.142463598902947020e+00 4.799954641249889420e+01 1.118922234490542245e+01
-4.834439093576353486e+00 4.787421580882139693e+01 1.109202518427100692e+01
-4.879039216513454846e+00 4.815137550300232760e+01 1.196939157731163306e+01
-4.922806115672468508e+00 4.788923283062600689e+01 1.153356761035237632e+01
-5.536516164197605505e+00 4.786234967691645181e+01 1.125731348996807846e+01
-5.146725587480438513e+00 4.801291156340847266e+01 1.112276244000335801e+01
-5.312159579292445422e+00 4.837333490098334465e+01 1.125484040796403562e+01
-5.038853645741839138e+00 4.820355396084253385e+01 1.134510380648844574e+01
-5.129409777063060893e+00 4.777246254036188589e+01 1.108588477777331072e+01
-5.096899556302853185e+00 4.787432815455572666e+01 1.132655282332023106e+01
-5.393254538129126807e+00 4.819521374709007233e+01 1.124802803785465954e+01
-5.480248944326251426e+00 4.786331775998143456e+01 1.126908121178074573e+01
-5.277585437252857226e+00 4.778850749154949540e+01 1.131554031619708311e+01
-5.365269752139752768e+00 4.801256509725961052e+01 1.191468882986875322e+01
-5.114122562385740700e+00 4.797592975158921291e+01 1.196075339470372079e+01
-4.952087970928658045e+00 4.828472802987253232e+01 1.107557525528953057e+01
-5.224775698757873066e+00 4.781440952492675933e+01 1.164909500793882735e+01
-5.363314618679299706e+00 4.834518830150285140e+01 1.193669697379380601e+01
-4.922079609038198633e+00 4.819650775845834545e+01 1.115295983982463746e+01
-5.338640303378322294e+00 4.792565669930479544e+01 1.141438110228459024e+01
-5.060221049609564758e+00 4.821310715823720017e+01 1.161829294797116141e+01
-5.217074597533050806e+00 4.797267493831272134e+01 1.195670650176303162e+01
-5.322729997634123578e+00 4.800573161676566514e+01 1.184700027474653794e+01
-5.340998233438817522e+00 4.781771586460195067e+01 1.182771440900147120e+01
-5.109584493367671953e+00 4.796190322336383360e+01 1.104985671765380140e+01
-5.224265770086294225e+00 4.800793268299575089e+01 1.173318764266129755e+01
-4.882527777850100392e+00 4.776878334621014233e+01 1.174744508229036555e+01
-5.336277484574361019e+00 4.777614912939849035e+01 1.198829720408379451e+01
-5.327593649637729634e+00 4.825158726413306454e+01 1.113269356999713899e+01
-5.376918577310753733e+00 4.798256207279748509e+01 1.171355839086645467e+01
-5.343393716070271360e+00 4.789759235827995809e+01 1.202545686087020904e+01
-5.178018678234491468e+00 4.793774732825467311e+01 1.134465332044987207e+01
-5.014134354870286359e+00 4.827407780651383717e+01 1.133889126800113623e+01
-5.504125488246623732e+00 4.810550823894154604e+01 1.175592163628597220e+01
-5.312499486223082101e+00 4.773240021973250435e+01 1.192699977719384208e+01
-5.309083158200449404e+00 4.811785020911930388e+01 1.170214416069636165e+01
-5.117248392061185314e+00 4.827873609926271570e+01 1.175586548359729022e+01
-5.345107517718695966e+00 4.809030668547840293e+01 1.167405654177216690e+01
-5.002853304698767545e+00 4.799829275696777131e+01 1.198807077805109245e+01
-5.197682467647993576e+00 4.800091531837937708e+01 1.146981397354440801e+01
-5.279527636125244783e+00 4.805130896328995505e+01 1.147815391270776608e+01
-5.230902688018470137e+00 4.826297707327097442e+01 1.171253780110656351e+01
-5.181557651313728030e+00 4.818151946052994816e+01 1.127828780427875976e+01
-5.516473785564432575e+00 4.798830689530411320e+01 1.188230318481127412e+01
-5.007788215589734193e+00 4.787957893792447805e+01 1.129521251761524603e+01
-5.325047558615647603e+00 4.834243475824502667e+01 1.179781807974840824e+01
-5.124807336362246168e+00 4.797189889036960864e+01 1.146562958661680298e+01
-5.113971974196384274e+00 4.771198539934742655e+01 1.175588048213596792e+01
-5.058484672840936724e+00 4.804944885185792458e+01 1.123096438397219465e+01
-5.141322059143374368e+00 4.801777403198316563e+01 1.175549772589073960e+01
-4.934785623952911315e+00 4.823015278148715623e+01 1.181782818730645701e+01
-5.178728532064106993e+00 4.803321507270744206e+01 1.187459036291192760e+01
-5.017218783800007742e+00 4.783005647349330758e+01 1.187374645664999484e+01
-5.357981640913040522e+00 4.817807349306239928e+01 1.184392494220628045e+01
-5.203595238862807726e+00 4.764912546259115800e+01 1.136335926397036467e+01
-5.186732785060277351e+00 4.794939136369444554e+01 1.124787611646337560e+01
-5.476334192135798418e+00 4.772973750826109551e+01 1.185054599940172793e+01
-5.062917273399836660e+00 4.822201381895578720e+01 1.160199546595213071e+01
-5.089111103765773692e+00 4.807788079056260955e+01 1.167030994963821655e+01
-4.872073185930962502e+00 4.789890586922492588e+01 1.184107906118434350e+01
-5.234904948494449428e+00 4.798096908403451977e+01 1.192546335178530192e+01
-5.234777165722842796e+00 4.779687834434857763e+01 1.121474436888411041e+01
-5.036811086092688683e+00 4.781116882285257930e+01 1.179211805357807563e+01
-5.053877385493276364e+00 4.794655914748627623e+01 1.182438300221219230e+01
-5.197772721414648522e+00 4.794931567260630345e+01 1.182246940213178021e+01
-5.045851806201301137e+00 4.814295964941063488e+01 1.137238719029140555e+01
-4.950987293937945566e+00 4.804570106856233735e+01 1.194169632909170531e+01
-5.072258713471616609e+00 4.780023101380351136e+01 1.140290548784197178e+01
-5.455477869292082005e+00 4.815987509909415820e+01 1.114410168130966383e+01
-5.103737541426196067e+00 4.796565083178999345e+01 1.178434670708249854e+01
-5.200614634707725337e+00 4.803426770947666569e+01 1.162056472572312060e+01
-5.046357153975121079e+00 4.819737649995298057e+01 1.166919604339742378e+01
-5.141980684201875818e+00 4.797181449206848924e+01 1.117569426096657281e+01
-4.964233359438895654e+00 4.831235556869475545e+01 1.188639739403091689e+01
-5.250767127524709643e+00 4.804578687101746937e+01 1.162530421290105487e+01
-5.193972069943989744e+00 4.793182827388923783e+01 1.151032269875863534e+01
-5.344598111606814861e+00 4.787179466609438094e+01 1.144218547177466050e+01
-5.046651326700853701e+00 4.822410517140859554e+01 1.178096650221607256e+01
-5.311945329761573298e+00 4.780126335907241497e+01 1.177570957685267317e+01
-5.117434956163744886e+00 4.790166688734903033e+01 1.107201080534336768e+01
-5.172393778051719515e+00 4.795832471690017229e+01 1.127207129214169612e+01
-5.212758320494111253e+00 4.839656489753153323e+01 1.161094925124609212e+01
-5.297771044914832750e+00 4.803034883941019473e+01 1.137056718296895497e+01
-5.382325031394913140e+00 4.802243066386203196e+01 1.116765578318556074e+01
-5.003617247858133332e+00 4.794592195836842308e+01 1.164984341753527985e+01
-4.922838968216820099e+00 4.788849933664648972e+01 1.177331031791239369e+01
-4.944088249224758869e+00 4.782989117038908944e+01 1.160005201916256645e+01
-5.175042543821452234e+00 4.799579364294319817e+01 1.187108591282158088e+01
-5.160294585231747000e+00 4.808461668685935564e+01 1.162244723787745393e+01
-5.494591615242286231e+00 4.802984656505969241e+01 1.119743122611563635e+01
-5.206159585554099856e+00 4.799467911370674500e+01 1.188267308000911449e+01
-5.102668332132807905e+00 4.822432390049105067e+01 1.150107579186921214e+01
-5.300685064328784613e+00 4.806386997144014828e+01 1.125357428456678477e+01
-5.342125795046483994e+00 4.799169336808942177e+01 1.124737450549665496e+01
-5.210413897959215390e+00 4.813643391252482928e+01 1.117584152197915159e+01
-5.100976892803435803e+00 4.766303810650413908e+01 1.105565632942624354e+01
-5.162314121439139925e+00 4.790114024561618322e+01 1.170909349205832584e+01
-5.199185150509649134e+00 4.795980516472810962e+01 1.117232825334540536e+01
-5.227019675692019973e+00 4.799486850751302569e+01 1.111996383828685353e+01
-4.977510358043862659e+00 4.792765962104856925e+01 1.111784797528972391e+01
-5.052288041369904725e+00 4.788136972902466937e+01 1.175107536579842638e+01
-5.281798126110848202e+00 4.767221475235429295e+01 1.175042123061882116e+01
-5.439360977621976900e+00 4.816259066377407549e+01 1.125903298222695348e+01
-5.378712458353915871e+00 4.775205085306410524e+01 1.151893674093778053e+01
-5.063622529860873911e+00 4.796828614886372577e+01 1.201543960984223425e+01
-5.011379739448787340e+00 4.770338100288550720e+01 1.200418288595458094e+01
-4.845774687026772831e+00 4.810959728162386995e+01 1.168630690513423964e+01
-5.070496661078557565e+00 4.820832689740463195e+01 1.154606626713111517e+01
-5.426547946623032637e+00 4.796494709527756584e+01 1.150081941657243334e+01
-4.967390620744198237e+00 4.798941241997238905e+01 1.123117585714181565e+01
-4.988157658013322227e+00 4.817050182527295021e+01 1.169062915826037852e+01
-5.076594500386729436e+00 4.813842699294957583e+01 1.162003998103075375e+01
-5.211142328247429845e+00 4.837961929402914052e+01 1.161089457859145568e+01
-5.376846589944142885e+00 4.820236588765853014e+01 1.163286762232890936e+01
-4.836584337038423165e+00 4.797874101752373832e+01 1.191922695051517778e+01
-5.160349131416959167e+00 4.793804996447327227e+01 1.135639583471103897e+01
-5.096944508001099550e+00 4.784536297810212346e+01 1.179691755454222246e+01
-5.169176078052982959e+00 4.801295517515134748e+01 1.116440531973346850e+01
-5.543933633495215396e+00 4.811071733684227780e+01 1.126432304565499010e+01
-5.133635583276591419e+00 4.798138334136041294e+01 1.162261142273652581e+01
-5.536007732194391018e+00 4.819069445186666911e+01 1.103791985664239306e+01
-5.108451035796825579e+00 4.789840574018052166e+01 1.115935651269414741e+01
-5.213732130025519496e+00 4.799702292420933958e+01 1.193224595978864855e+01
-5.000826400296667806e+00 4.792900734045398536e+01 1.170213848910178100e+01
-4.940540058792686651e+00 4.813908867036209216e+01 1.136435750403250822e+01
-4.873368709268503629e+00 4.792091637356317335e+01 1.194922397318160279e+01
-5.069373618282171812e+00 4.802176110463136638e+01 1.196643784199840432e+01
-5.161624082226070165e+00 4.830596471300094663e+01 1.196152814534006836e+01
-5.162903320792625372e+00 4.826236512686239166e+01 1.121246520225477816e+01
-5.095793691434827188e+00 4.800054342535189988e+01 1.136490738733805372e+01
-5.035542052905673138e+00 4.833077926688841330e+01 1.182173702645287960e+01
-5.106474282393945963e+00 4.796296524954902907e+01 1.155824588888403426e+01
-5.087622055546954236e+00 4.803007373148750503e+01 1.164230672327487603e+01
-5.297738183893839548e+00 4.798491158237610676e+01 1.149343383400302976e+01
-5.186675182516379046e+00 4.821027293650543299e+01 1.177770489001744458e+01
-5.375596114572990913e+00 4.804190565763350662e+01 1.193396235153292650e+01
-5.109779779352345841e+00 4.814696741660728208e+01 1.202656210827045946e+01
-5.393376457663559442e+00 4.768222087214994076e+01 1.176541905418580036e+01
-5.165474546729519112e+00 4.788393865143905259e+01 1.157349058768081917e+01
-5.366391890135804310e+00 4.787987289796991064e+01 1.191030339158799833e+01
-5.110534598661387484e+00 4.788861997403730442e+01 1.128735441527915206e+01
-5.274469170338170976e+00 4.814129863799231401e+01 1.183725269318673412e+01
-5.025101129599042871e+00 4.818692966945107514e+01 1.180165956540813887e+01
-5.015215194306505531e+00 4.776361057762296269e+01 1.142030451639772437e+01
-5.210369216943562698e+00 4.801921457260637993e+01 1.106920928735324594e+01
-5.152761661469171806e+00 4.765614361067034110e+01 1.112596533140626320e+01
-5.373843412295540745e+00 4.831792560766126599e+01 1.201514486313012675e+01
-5.132024883544733740e+00 4.800830332630020791e+01 1.165644620460550307e+01
-5.319863702210559708e+00 4.774040073877341683e+01 1.123426954930325117e+01
-5.176157640118183245e+00 4.802371232901084852e+01 1.152705241994312679e+01
-5.240494519712934895e+00 4.802952423113743663e+01 1.154980540702815262e+01
-5.178779650988516892e+00 4.826375864008389982e+01 1.170111701326002773e+01
-5.454291656054587989e+00 4.805698589670075194e+01 1.162521438181899924e+01
-5.144689479400008203e+00 4.805640218337583747e+01 1.148612936070948010e+01
-5.161824327771300958e+00 4.834943147844104061e+01 1.190407665237659707e+01
-4.965774206748627684e+00 4.798410524366132535e+01 1.164963618987636806e+01
-5.354550064554625344e+00 4.774750291560961557e+01 1.109150541190686567e+01
-5.146462764473094254e+00 4.795447423942844978e+01 1.196823014201121360e+01
-5.399474733064504761e+00 4.794573731255174920e+01 1.136785833770464293e+01
-4.999573635052422027e+00 4.826076692088350484e+01 1.135927727752248906e+01
-5.198300756598089656e+00 4.770177298634104801e+01 1.112384092391182833e+01
-5.173692831880369880e+00 4.824400413024982726e+01 1.118310725060548627e+01
-5.340924421479551931e+00 4.799566471807102630e+01 1.171936401673401207e+01
-5.229388599786172875e+00 4.805722880601689440e+01 1.134847633251222199e+01
-4.978263383220645544e+00 4.795983520276632817e+01 1.146100364519571357e+01
-4.851405729906976383e+00 4.781985841661791170e+01 1.136473967517509820e+01
-5.025544614881622074e+00 4.783833448962329982e+01 1.132627347266002715e+01
-5.006503515283022843e+00 4.786663829366930401e+01 1.121363043611897581e+01
-4.961706813567694496e+00 4.791449615966266862e+01 1.136228931095491390e+01
-5.468879360546893942e+00 4.776363592704613836e+01 1.126844879342039007e+01
-5.112552870090198986e+00 4.781963837913105664e+01 1.174260606147167607e+01
-5.182554067855964952e+00 4.792998608263058458e+01 1.198463177127817758e+01
-5.200112374389277647e+00 4.800106332035898760e+01 1.202848298996386411e+01
-5.201898396090133048e+00 4.798059675791709111e+01 1.165471494765661120e+01
-5.259115810475143427e+00 4.816796783997680365e+01 1.183509231004061135e+01
-5.236682587753296758e+00 4.802558417220615183e+01 1.139672130862178534e+01
-5.255163504841020128e+00 4.803974787970291516e+01 1.149229134209078396e+01
-5.201046600093460093e+00 4.801849969962981390e+01 1.131800931575570068e+01
-5.367229088503155054e+00 4.809326008008527253e+01 1.129518172967601330e+01
-5.022613809601224055e+00 4.789555361358815588e+01 1.110542647728943422e+01
-4.987278942028326334e+00 4.796213807790356043e+01 1.194511641245940226e+01
-5.239048889228484995e+00 4.801131112118704181e+01 1.106925562810969410e+01
-5.567095448712379380e+00 4.796262269300058989e+01 1.106715738487058687e+01
-5.557421553624326549e+00 4.809187901314694358e+01 1.162948687996379604e+01
-5.388405671074679937e+00 4.791345270036907067e+01 1.172562416360289284e+01
-5.267980274712042998e+00 4.770738692475664777e+01 1.181712174186855080e+01
-5.266531048783264168e+00 4.779458064022816188e+01 1.109643350031272746e+01
-5.069712615574686332e+00 4.788889970926730655e+01 1.180411921176187029e+01
-5.249169658020490736e+00 4.776556767029262573e+01 1.182665829904241761e+01
-5.326303480978650029e+00 4.819322706897315101e+01 1.179615862920664782e+01
-5.287317627758120864e+00 4.815117534388339493e+01 1.174957015947982519e+01
-5.298837247541325013e+00 4.799093800878117122e+01 1.161150505693153434e+01
-4.884970107772331538e+00 4.785495685898786888e+01 1.148981818336123517e+01
-4.974337169165489847e+00 4.780148830584521136e+01 1.119879597745805100e+01
-5.307342933256703255e+00 4.792754229533639432e+01 1.173804974631472398e+01
-5.544795341388546461e+00 4.814539788488955452e+01 1.187161331822570531e+01
-5.406376449090869230e+00 4.833464118012550870e+01 1.127835664863055953e+01
-5.530011926348287865e+00 4.810329928610930494e+01 1.145041899317893375e+01
-5.418550738734021266e+00 4.777181266366527268e+01 1.122809131052821741e+01
-5.063682987877539787e+00 4.798844600940085314e+01 1.147013195998084711e+01
-5.268597406524960114e+00 4.790115070606714198e+01 1.190598644681473317e+01
-5.544388406231631095e+00 4.806154835502643152e+01 1.163506541073523870e+01
-5.052239751613852192e+00 4.817926402509709760e+01 1.108695259731408811e+01
-5.192304126630387984e+00 4.799420452562614514e+01 1.177046292764872426e+01
-5.232502721383359479e+00 4.817913536886602799e+01 1.203173818221915425e+01
-5.155053936504812917e+00 4.809583858955121372e+01 1.107207137216341053e+01
