-5.139544313453210833e+00 4.839560006803111492e+01 1.127950843165748473e+01
-5.188229291150809885e+00 4.840083586297909335e+01 1.118161054275626753e+01
-5.134049662411178439e+00 4.825224732450757159e+01 1.190234177394463977e+01
-5.096761071236180385e+00 4.835582555890356815e+01 1.175832322399915419e+01
-5.062819083858582481e+00 4.821640136013368760e+01 1.132667960070435242e+01
-5.153895914445842941e+00 4.829248959517270379e+01 1.137483691241232187e+01
-5.175704069549526665e+00 4.831144622307761693e+01 1.166458225888233535e+01
-5.053154923025912737e+00 4.816941767231278249e+01 1.138098575948943036e+01
-5.051392650134017615e+00 4.835711318886225030e+01 1.201662704924183345e+01
-5.166333936464443610e+00 4.836141142489442046e+01 1.118239369572745900e+01
-5.138639951794910843e+00 4.833360914482000226e+01 1.160369426889005950e+01
-5.188944915770109745e+00 4.837926273188907800e+01 1.108364557338033762e+01
-5.161309664975298084e+00 4.837851809375356282e+01 1.181509349222563721e+01
-5.148525792285260749e+00 4.840344756466103604e+01 1.104325293920596884e+01
-5.100008948632710926e+00 4.829986965383240971e+01 1.181658668993037509e+01
-5.088725189201424470e+00 4.826180051669349069e+01 1.202833828016524365e+01
-5.194424912692221064e+00 4.820103810820731383e+01 1.109030917741117150e+01
-5.210012555051401151e+00 4.836609299391287919e+01 1.177359964239239964e+01
-5.073727684914855374e+00 4.822514444812908607e+01 1.195462601190315688e+01
-5.044361883283806414e+00 4.823370761420106589e+01 1.181168234689197583e+01
-5.001105663001430557e+00 4.826856493401034953e+01 1.144939806511823832e+01
-5.097616032110277473e+00 4.831863273960308902e+01 1.156952589087576833e+01
-5.111824462867748942e+00 4.843807931167127379e+01 1.192333342039612809e+01
-5.201793238126794172e+00 4.827781433768149100e+01 1.184180623924503450e+01
-5.092240144699406557e+00 4.824415166686041090e+01 1.141628339207319520e+01
-5.158107788804112914e+00 4.839727335859631552e+01 1.197673255022352556e+01
-5.087615262434153074e+00 4.818352068136035626e+01 1.119197267102518545e+01
-5.117468213197384763e+00 4.837005563577640999e+01 1.173825038029255730e+01
-5.102541259088781977e+00 4.830136471739488258e+01 1.166031910860941601e+01
-5.187907177626801314e+00 4.836826194887652264e+01 1.182384815709323256e+01
-5.078736955075680015e+00 4.838107028015837585e+01 1.131067423855128418e+01
-5.194931605597356672e+00 4.831057263559330295e+01 1.126000861355034210e+01
-5.101131345007961393e+00 4.819425232340940113e+01 1.133475529762532297e+01
-5.076161020918526390e+00 4.834330842714327758e+01 1.120012741268297418e+01
-5.105779161665313204e+00 4.828914052860070427e+01 1.201064627932494666e+01
-5.087766387148175973e+00 4.832807273614498200e+01 1.195140950300953797e+01
-5.093467046775852047e+00 4.815423093415468259e+01 1.154249830592769221e+01
-5.195667125751812776e+00 4.827540246591762241e+01 1.147558727759557584e+01
-5.196801849539691709e+00 4.833294909020704466e+01 1.133354328730674077e+01
-5.087618484286516640e+00 4.833604716004788315e+01 1.109304810920076179e+01
-5.107593365164328603e+00 4.829728011056919712e+01 1.162909705440481112e+01
-5.110665781383976203e+00 4.825880066190712370e+01 1.175717823873317691e+01
-5.108304581574198977e+00 4.825017324587213352e+01 1.132286115657624492e+01
-5.058084709638007048e+00 4.832337552584293405e+01 1.172541529022091211e+01
-5.086895793952774802e+00 4.830083481865672468e+01 1.201505204596185017e+01
-4.976424385435878506e+00 4.823596186718716439e+01 1.194177622410148842e+01
-5.017291879569101276e+00 4.826645431211917980e+01 1.157830976322535044e+01
-5.048494081833936775e+00 4.840800226784100602e+01 1.105992217561020041e+01
-5.077340108654103901e+00 4.826236645490197219e+01 1.203596917906568464e+01
-4.992894690540909508e+00 4.819800530453338894e+01 1.143526273568798857e+01
-5.195763448659813655e+00 4.836930430144229831e+01 1.191073800055787935e+01
-5.078354620829552246e+00 4.828260446230988379e+01 1.147647342999495557e+01
-5.098939199546608236e+00 4.830607203823787899e+01 1.171241720523970287e+01
-5.125757137529324936e+00 4.822186107518824372e+01 1.120994063244068784e+01
-5.111721251687777468e+00 4.825055835582359975e+01 1.132364542639078309e+01
-5.054726645445510869e+00 4.828345068677565166e+01 1.157616178603665880e+01
-5.014275733711043515e+00 4.827767586793181920e+01 1.105578494446682392e+01
-5.169216044533652799e+00 4.829307452110348464e+01 1.118579171038442865e+01
-5.133741215100798172e+00 4.833525697520704512e+01 1.182170740877830539e+01
-5.095296073410541027e+00 4.829182282111933233e+01 1.153842305115807676e+01
-5.012977816217899729e+00 4.840808865184828846e+01 1.177030656478441983e+01
-5.137393344430278397e+00 4.843348334715320647e+01 1.118420725842684327e+01
-5.123257497509575487e+00 4.827749825971150699e+01 1.130352080621290867e+01
-5.101217990005181058e+00 4.833156807570681224e+01 1.176674526834304224e+01
-5.128210210601957364e+00 4.834627872148130479e+01 1.114087921261116776e+01
-5.166555522520726917e+00 4.823347871155299060e+01 1.134116819409404719e+01
-5.057169881526806243e+00 4.827947425149805127e+01 1.131221573418365800e+01
-5.049255546280560836e+00 4.843743483615877921e+01 1.116173607951077429e+01
-5.161544544523871458e+00 4.835623480672224872e+01 1.190600558323572322e+01
-5.084161014102082987e+00 4.824942827430127323e+01 1.113752739835378058e+01
-4.989270088352698806e+00 4.827723115941486043e+01 1.115927046160127922e+01
-5.109193780558130449e+00 4.829029852507327547e+01 1.142151877531628301e+01
-5.092099678451383227e+00 4.824815865197140141e+01 1.198447000607693091e+01
-4.972343392668889805e+00 4.825602524028601437e+01 1.150935956895799528e+01
-5.160669050667609170e+00 4.822550055057963192e+01 1.135610169645640966e+01
-5.169542352364778992e+00 4.830189339640440949e+01 1.155824453869595025e+01
-5.193559261891813605e+00 4.819223123054276670e+01 1.116170820853144541e+01
-5.183618046221616815e+00 4.842281590482430431e+01 1.200371414535070080e+01
-5.114802360463590603e+00 4.825374676968338150e+01 1.192616340739967562e+01
-4.982739929886843555e+00 4.825963971807511399e+01 1.186707004527230325e+01
-5.087954077146053855e+00 4.832613226017556940e+01 1.189404044588727061e+01
-5.170110681472015912e+00 4.822075454249138460e+01 1.183604761940365258e+01
-5.148255473245043845e+00 4.835820012416143499e+01 1.115608755217274428e+01
-5.053532075406718782e+00 4.825335721041246728e+01 1.195835830792956855e+01
-5.023915600345278065e+00 4.840591311641811245e+01 1.145498874870894213e+01
-5.074771910887791115e+00 4.830260513399915823e+01 1.199900943713933721e+01
-5.055879579188370165e+00 4.832895286873180396e+01 1.133781916519068922e+01
-5.014752594923495899e+00 4.829454304697190992e+01 1.140850368814442284e+01
-4.992743667572388411e+00 4.838517736816702097e+01 1.150941123740470928e+01
-5.157325557300315388e+00 4.823241134784180417e+01 1.194258698518239825e+01
-5.054587076858110706e+00 4.831371344587650185e+01 1.173294853898561385e+01
-5.223979850742558995e+00 4.827158706240784625e+01 1.133096891484005120e+01
-5.216327117105545419e+00 4.835427091998401039e+01 1.148448808946999478e+01
-5.134202166524290512e+00 4.830688869405982189e+01 1.180874556820378274e+01
-5.121860146658955948e+00 4.842954561103282174e+01 1.180783886438166697e+01
-5.040808089181009422e+00 4.822059059578733553e+01 1.145193809521265216e+01
-5.116865397385681469e+00 4.835322063919903002e+01 1.106373945563016292e+01
-5.098356220423565510e+00 4.828624425048135294e+01 1.187334895542447555e+01
-5.192989091865064744e+00 4.839047572247789475e+01 1.143472135911167165e+01
-5.094827224970621238e+00 4.817600301664705142e+01 1.126706761376621913e+01
